0.121768 -0.128824 0.010497 74 57 49 255
0.033253 -0.158901 0.025398 73 46 37 255
0.041222 -0.170756 0.024430 69 46 32 255
-0.013764 -0.102584 0.001502 87 87 95 255
-0.012344 -0.099505 0.001417 116 117 122 255
0.120766 -0.121130 0.009682 112 81 63 255
0.130289 -0.104365 0.003479 15 10 7 255
0.131962 -0.104689 0.003042 16 11 8 255
0.007656 -0.119615 0.011769 96 74 60 255
0.079350 -0.180822 0.018673 66 44 33 255
0.106529 -0.166431 0.014434 34 22 26 255
0.106322 -0.158975 0.015034 41 29 29 255
0.120157 -0.107809 0.008173 172 129 95 255
0.008075 -0.108410 0.009355 61 42 35 255
0.122405 -0.109512 0.007497 155 114 84 255
0.129116 -0.104041 0.003882 16 11 8 255
-0.013764 -0.102584 0.001502 87 87 95 255
0.008075 -0.108942 0.009417 57 40 33 255
0.008075 -0.108410 0.009355 61 42 35 255
-0.012344 -0.100066 0.001480 98 101 108 255
0.119591 -0.118720 0.009838 121 84 58 255
0.110804 -0.116834 0.013108 159 114 85 255
0.102705 -0.131187 0.016403 128 87 65 255
0.080542 -0.121996 0.021169 136 94 72 255
0.078882 -0.138778 0.022147 124 87 71 255
0.008797 -0.107561 0.009578 65 43 32 255
-0.003102 -0.087624 0.001939 45 35 34 255
-0.012344 -0.100066 0.001480 98 101 108 255
-0.012344 -0.100066 0.001480 98 101 108 255
-0.018374 -0.108460 0.002136 75 74 82 255
-0.015582 -0.106231 0.001687 76 76 86 255
-0.015582 -0.106231 0.001687 76 76 86 255
-0.013764 -0.102584 0.001502 87 87 95 255
0.108572 -0.136207 0.014774 93 65 51 255
0.080542 -0.121996 0.021169 136 94 72 255
0.077596 -0.123147 0.022226 139 92 72 255
0.072201 -0.169356 0.021437 85 57 45 255
0.096045 -0.162232 0.017557 50 35 32 255
0.045970 -0.178738 0.022863 70 46 34 255
0.026718 -0.178430 0.021243 55 32 26 255
-0.015582 -0.106231 0.001687 76 76 86 255
-0.015582 -0.106231 0.001687 76 76 86 255
-0.015582 -0.106231 0.001687 76 76 86 255
-0.015582 -0.106231 0.001687 76 76 86 255
0.070050 -0.141047 0.025172 121 85 71 255
0.026680 -0.143342 0.025857 72 43 35 255
0.017899 -0.161269 0.022391 61 41 32 255
0.095701 -0.111350 0.017468 145 103 78 255
0.092735 -0.114405 0.018379 145 101 76 255
0.007656 -0.119615 0.011769 96 74 60 255
0.007656 -0.119615 0.011769 96 74 60 255
0.007058 -0.120139 0.011872 94 77 67 255
0.022121 -0.169309 0.021943 58 38 31 255
0.131962 -0.104689 0.003042 16 11 8 255
0.119598 -0.130992 0.011254 89 63 50 255
0.117527 -0.131618 0.011829 86 60 45 255
-0.015582 -0.106231 0.001687 76 76 86 255
0.004891 -0.131477 0.015129 90 71 64 255
0.004493 -0.135161 0.017032 86 64 50 255
0.005911 -0.123653 0.013070 107 89 77 255
0.130289 -0.104365 0.003479 15 10 7 255
0.008075 -0.108942 0.009417 57 40 33 255
0.006558 -0.119607 0.011843 104 87 77 255
-0.003102 -0.087624 0.001939 45 35 34 255
0.007667 -0.153941 0.021507 53 34 27 255
0.011043 -0.164129 0.022097 51 32 26 255
0.009150 -0.175580 0.026441 26 21 25 255
0.007429 -0.116248 0.011028 69 58 56 255
0.014788 -0.168659 0.021643 57 34 28 255
0.008541 -0.152331 0.020911 58 36 25 255
0.016765 -0.176866 0.022104 53 34 27 255
-0.015582 -0.106231 0.001687 76 76 86 255
-0.020245 -0.109263 0.002712 62 61 69 255
-0.026556 -0.109418 0.004246 92 92 104 255
-0.041538 -0.124136 0.006602 156 150 154 255
-0.021069 -0.110560 0.004010 60 57 66 255
-0.042536 -0.124133 0.006670 158 152 156 255
-0.027058 -0.106081 0.003895 142 148 160 255
-0.023042 -0.103656 0.002255 114 116 128 255
-0.023265 -0.106194 0.002206 86 89 98 255
-0.023042 -0.103656 0.002255 114 116 128 255
-0.023265 -0.106194 0.002206 86 89 98 255
-0.023265 -0.106194 0.002206 86 89 98 255
-0.020847 -0.101991 0.001919 130 134 145 255
-0.015140 -0.098936 0.001534 131 134 139 255
-0.020847 -0.101991 0.001919 130 134 145 255
-0.041538 -0.124136 0.006602 156 150 154 255
-0.042536 -0.124133 0.006670 158 152 156 255
-0.042536 -0.124133 0.006670 158 152 156 255
-0.041538 -0.124136 0.006602 156 150 154 255
-0.027058 -0.106081 0.003895 142 148 160 255
-0.042536 -0.124133 0.006670 158 152 156 255
-0.013764 -0.102584 0.001502 87 87 95 255
-0.012945 -0.098945 0.001385 103 106 113 255
-0.041537 -0.125250 0.006737 93 88 94 255
0.002621 -0.134764 0.017471 31 21 20 255
0.003019 -0.130045 0.015454 23 14 15 255
-0.041537 -0.125250 0.006737 93 88 94 255
-0.054955 -0.138689 0.012809 61 58 65 255
-0.056551 -0.138135 0.012854 120 117 124 255
-0.079563 -0.151778 0.014909 110 83 76 255
-0.057322 -0.140481 0.013540 52 49 56 255
-0.087291 -0.157503 0.015369 112 88 84 255
-0.087291 -0.157503 0.015369 112 88 84 255
-0.041537 -0.125250 0.006737 93 88 94 255
-0.047698 -0.151608 0.019222 27 24 33 255
-0.080063 -0.151774 0.014942 109 82 75 255
-0.080063 -0.151774 0.014942 109 82 75 255
-0.087291 -0.157503 0.015369 112 88 84 255
-0.043134 -0.125242 0.006845 125 120 126 255
-0.043134 -0.125242 0.006845 125 120 126 255
-0.043134 -0.125242 0.006845 125 120 126 255
-0.043134 -0.125242 0.006845 125 120 126 255
-0.043134 -0.124685 0.006783 155 149 153 255
-0.042536 -0.124133 0.006670 158 152 156 255
-0.043134 -0.124685 0.006783 155 149 153 255
-0.043134 -0.124685 0.006783 155 149 153 255
-0.022765 -0.107876 0.002360 91 94 103 255
-0.042536 -0.124133 0.006670 158 152 156 255
-0.023264 -0.107315 0.002332 127 130 139 255
-0.022765 -0.107876 0.002360 91 94 103 255
-0.044406 -0.124896 0.007254 131 126 132 255
-0.043134 -0.124685 0.006783 155 149 153 255
-0.061016 -0.139373 0.013666 146 141 148 255
-0.044406 -0.124896 0.007254 131 126 132 255
-0.043134 -0.125242 0.006845 125 120 126 255
-0.023265 -0.106194 0.002206 86 89 98 255
-0.023265 -0.106194 0.002206 86 89 98 255
-0.023265 -0.106194 0.002206 86 89 98 255
-0.015582 -0.106231 0.001687 76 76 86 255
-0.018374 -0.108460 0.002136 75 74 82 255
-0.015582 -0.106231 0.001687 76 76 86 255
-0.080063 -0.151774 0.014942 109 82 75 255
-0.043134 -0.124685 0.006783 155 149 153 255
-0.043134 -0.124685 0.006783 155 149 153 255
-0.079563 -0.151778 0.014909 110 83 76 255
-0.084273 -0.156007 0.015362 103 82 81 255
-0.051082 -0.168296 0.022831 30 27 34 255
-0.026760 -0.174354 0.022962 21 18 25 255
-0.018374 -0.108460 0.002136 75 74 82 255
-0.018374 -0.108460 0.002136 75 74 82 255
-0.041537 -0.125250 0.006737 93 88 94 255
-0.041537 -0.125250 0.006737 93 88 94 255
-0.043134 -0.125242 0.006845 125 120 126 255
-0.041537 -0.125250 0.006737 93 88 94 255
-0.031405 -0.167683 0.023228 24 19 26 255
-0.042536 -0.124133 0.006670 158 152 156 255
-0.043134 -0.124685 0.006783 155 149 153 255
-0.042535 -0.125246 0.006805 118 111 118 255
-0.041537 -0.125250 0.006737 93 88 94 255
-0.018649 -0.109271 0.002604 66 64 75 255
-0.029132 -0.171273 0.023124 20 17 24 255
-0.080063 -0.151774 0.014942 109 82 75 255
-0.043134 -0.125242 0.006845 125 120 126 255
-0.043134 -0.125242 0.006845 125 120 126 255
-0.043134 -0.124685 0.006783 155 149 153 255
-0.043134 -0.125242 0.006845 125 120 126 255
-0.018649 -0.109271 0.002604 66 64 75 255
-0.025538 -0.174411 0.023241 22 19 26 255
-0.009275 -0.151955 0.025678 15 10 16 255
-0.021219 -0.180709 0.024042 28 26 29 255
-0.002790 -0.007893 0.054427 223 171 157 255
-0.034730 -0.027706 0.017012 105 91 82 255
-0.031579 -0.033674 0.015318 111 95 82 255
-0.031578 -0.034666 0.015440 104 88 75 255
-0.031578 -0.034666 0.015440 104 88 75 255
-0.029080 -0.057609 0.023693 47 35 35 255
-0.031578 -0.034666 0.015440 104 88 75 255
-0.028705 -0.059287 0.023504 45 33 33 255
-0.029080 -0.057609 0.023693 47 35 35 255
-0.043543 -0.103574 0.016275 39 39 49 255
-0.028705 -0.059287 0.023504 45 33 33 255
-0.020431 -0.076247 0.035012 54 36 34 255
-0.043543 -0.103574 0.016275 39 39 49 255
-0.013841 -0.084787 0.035548 46 23 15 255
-0.013841 -0.084787 0.035548 46 23 15 255
-0.009130 -0.090133 0.040541 45 29 30 255
-0.009130 -0.090133 0.040541 45 29 30 255
0.000118 -0.098749 0.032968 38 22 23 255
-0.006644 -0.092886 0.046469 46 27 23 255
0.004919 -0.102485 0.042100 34 18 19 255
0.001968 -0.099752 0.044154 41 25 26 255
0.003622 -0.092971 0.051560 49 29 30 255
-0.008243 -0.091215 0.046380 48 30 28 255
-0.006644 -0.092886 0.046469 46 27 23 255
0.002234 -0.097201 0.047808 45 26 28 255
-0.014154 -0.085020 0.044266 44 28 29 255
-0.011953 -0.086925 0.041443 33 21 25 255
-0.018337 -0.079545 0.038141 64 37 26 255
-0.016789 -0.081507 0.037539 59 36 28 255
-0.022502 -0.072634 0.033648 52 40 40 255
-0.021877 -0.073694 0.034090 61 36 29 255
-0.028061 -0.061537 0.027331 44 30 30 255
-0.026859 -0.063031 0.025979 42 28 28 255
-0.000079 -0.098302 0.031488 45 29 30 255
0.003891 -0.102372 0.031330 43 25 23 255
-0.003193 -0.095258 0.028102 36 20 20 255
-0.017898 -0.107602 0.013554 38 28 37 255
-0.032856 -0.102415 0.008196 198 207 224 255
-0.043543 -0.103574 0.016275 39 39 49 255
-0.032856 -0.102415 0.008196 198 207 224 255
-0.032856 -0.102415 0.008196 198 207 224 255
-0.032856 -0.102415 0.008196 198 207 224 255
-0.028705 -0.059287 0.023504 45 33 33 255
-0.031578 -0.034666 0.015440 104 88 75 255
-0.031578 -0.034666 0.015440 104 88 75 255
-0.033404 -0.030674 0.016177 101 87 78 255
-0.014799 -0.084090 0.042033 34 20 20 255
-0.010386 -0.088757 0.044084 43 23 22 255
-0.020161 -0.076774 0.037581 66 38 27 255
-0.024700 -0.069673 0.034904 55 40 37 255
-0.028986 -0.060303 0.028338 44 29 32 255
-0.035058 -0.049831 0.029338 57 43 40 255
-0.031710 -0.056304 0.029135 62 44 44 255
-0.040662 -0.039940 0.034350 90 67 59 255
-0.037833 -0.045041 0.030773 70 53 46 255
-0.043112 -0.030609 0.032713 112 90 79 255
-0.042806 -0.036294 0.031907 52 47 44 255
-0.039006 -0.043004 0.030987 68 53 50 255
-0.042234 -0.037076 0.034492 89 72 65 255
-0.043890 -0.023784 0.032343 124 94 84 255
-0.041433 -0.032333 0.029550 100 81 74 255
-0.001545 -0.096879 0.027455 30 15 18 255
0.002998 -0.101382 0.026937 34 19 24 255
-0.015453 -0.108010 0.014159 24 15 20 255
-0.017898 -0.107602 0.013554 38 28 37 255
-0.032856 -0.102415 0.008196 198 207 224 255
-0.032856 -0.102415 0.008196 198 207 224 255
-0.032856 -0.102415 0.008196 198 207 224 255
-0.032856 -0.102415 0.008196 198 207 224 255
-0.020804 -0.098019 0.003622 51 58 64 255
-0.031578 -0.034666 0.015440 104 88 75 255
-0.031578 -0.034666 0.015440 104 88 75 255
-0.023046 -0.100804 0.003375 122 126 137 255
-0.017369 -0.103659 0.009089 50 47 54 255
-0.015477 -0.103839 0.011872 40 30 38 255
-0.011936 -0.104280 0.012404 26 20 22 255
-0.007347 -0.104827 0.012155 23 17 21 255
-0.001010 -0.103910 0.010903 25 19 23 255
-0.006423 -0.103669 0.010874 23 14 19 255
0.000138 -0.102425 0.009930 29 19 20 255
-0.013441 -0.102293 0.001804 88 88 96 255
0.002508 -0.103279 0.009508 33 23 24 255
-0.014860 -0.104257 0.001774 82 82 90 255
0.002508 -0.103810 0.009570 32 21 25 255
-0.031159 -0.057724 0.028538 55 41 41 255
-0.030056 -0.058293 0.025649 46 30 30 255
-0.037130 -0.046845 0.029492 59 44 37 255
-0.038455 -0.044805 0.030429 62 51 47 255
-0.032005 -0.053565 0.025956 51 42 35 255
-0.035030 -0.049603 0.028228 63 49 46 255
-0.033054 -0.052156 0.026588 64 51 43 255
-0.036506 -0.034554 0.022619 101 81 74 255
-0.042638 -0.023485 0.030056 118 94 84 255
-0.036506 -0.034554 0.022619 101 81 74 255
-0.032556 -0.035725 0.017425 116 93 85 255
-0.041310 -0.019372 0.025523 128 109 102 255
-0.042859 -0.010479 0.022432 140 125 120 255
-0.037657 -0.021720 0.019042 120 103 95 255
-0.033404 -0.030674 0.016177 101 87 78 255
-0.026859 -0.063031 0.025979 42 28 28 255
-0.034730 -0.027706 0.017012 105 91 82 255
-0.044084 -0.009147 0.023438 124 116 113 255
-0.037657 -0.021720 0.019042 120 103 95 255
-0.043161 -0.002036 0.020029 96 82 79 255
-0.040434 -0.012845 0.020015 139 124 119 255
-0.036283 -0.019578 0.016896 142 124 114 255
-0.034009 0.000890 0.005358 44 35 36 255
0.004360 -0.087562 0.054497 59 35 33 255
-0.032912 -0.000143 0.005397 99 81 79 255
-0.023288 -0.029352 0.048556 167 106 87 255
-0.017357 -0.027725 0.050122 89 51 40 255
-0.013745 -0.028073 0.053174 32 13 7 255
-0.006939 -0.027749 0.054480 85 49 37 255
-0.002550 -0.028137 0.054221 41 22 15 255
0.003610 -0.108065 0.009981 24 18 20 255
-0.000019 0.040784 0.042837 138 81 62 255
0.002508 -0.103810 0.009570 32 21 25 255
0.003795 -0.064522 0.052588 87 54 45 255
0.000889 0.125310 0.025050 15 13 14 255
0.005074 -0.077661 0.055100 158 106 92 255
0.006786 -0.061467 0.052026 54 24 16 255
-0.004493 -0.001056 0.053748 230 178 167 255
0.004348 -0.071905 0.054129 163 111 89 255
0.003065 -0.058617 0.053037 100 51 46 255
0.004558 -0.054401 0.053894 143 64 67 255
-0.000631 0.074634 0.034625 220 172 160 255
0.003061 -0.055147 0.054082 127 56 54 255
0.000643 -0.025583 0.053717 66 39 28 255
-0.004739 -0.006128 0.055071 221 169 155 255
0.004480 -0.053357 0.054137 155 73 75 255
-0.003102 -0.087624 0.001939 45 35 34 255
0.003320 -0.062287 0.052720 71 38 31 255
0.003540 -0.059303 0.052719 84 39 33 255
0.004558 -0.054401 0.053894 143 64 67 255
0.004044 -0.034636 0.053087 62 38 36 255
0.000645 -0.028888 0.054092 47 32 25 255
-0.000304 0.015482 0.047221 228 177 156 255
-0.033139 0.003370 0.004642 42 31 29 255
-0.001252 0.012696 0.048330 221 169 148 255
-0.002137 0.100718 0.027378 101 80 77 255
-0.000436 0.084854 0.031987 220 178 162 255
-0.002995 0.002007 0.051854 223 177 151 255
-0.034739 0.011113 0.003856 48 44 43 255
-0.034739 0.011113 0.003856 48 44 43 255
-0.000575 0.056702 0.040304 218 168 157 255
-0.021281 0.137638 0.018999 34 28 32 255
-0.006160 -0.009535 0.056647 221 169 155 255
-0.000164 -0.017831 0.054311 161 96 78 255
-0.004538 0.113257 0.026098 23 18 22 255
-0.034240 0.010596 0.003884 38 29 30 255
-0.034985 0.122887 0.018021 29 23 27 255
0.001408 -0.045945 0.053849 87 35 37 255
0.000891 0.123700 0.025236 21 16 20 255
0.002181 -0.045470 0.053385 84 26 25 255
-0.002164 -0.014543 0.055516 196 135 116 255
-0.034240 0.010596 0.003884 38 29 30 255
-0.034240 0.010596 0.003884 38 29 30 255
0.000825 -0.036483 0.054600 113 68 62 255
0.000896 -0.031555 0.053663 40 20 19 255
-0.021281 0.137638 0.018999 34 28 32 255
-0.000022 0.045313 0.042305 153 90 75 255
0.000901 -0.038206 0.054432 110 60 53 255
0.001018 0.024375 0.043574 211 162 132 255
0.001154 -0.041683 0.054092 107 54 50 255
0.005980 -0.109465 0.009621 25 19 21 255
-0.053123 0.112013 0.013287 52 46 50 255
0.001007 -0.044446 0.053702 109 53 52 255
0.002580 -0.044344 0.053222 105 51 49 255
-0.003221 0.004795 0.051186 221 171 148 255
0.003899 -0.041843 0.053207 110 57 53 255
-0.000603 0.064965 0.037545 216 172 159 255
0.000641 -0.022278 0.053333 116 67 50 255
0.000463 -0.020608 0.053508 118 62 45 255
0.000793 0.020407 0.045132 225 175 148 255
-0.000237 0.092498 0.029648 207 173 163 255
-0.000082 0.027046 0.043349 207 160 130 255
0.000641 -0.023381 0.053458 96 57 42 255
-0.053123 0.112013 0.013287 52 46 50 255
-0.021281 0.137638 0.018999 34 28 32 255
-0.021281 0.137638 0.018999 34 28 32 255
-0.000231 0.018011 0.046558 235 185 162 255
-0.002198 0.009950 0.049438 223 171 150 255
-0.003102 -0.087624 0.001939 45 35 34 255
-0.002938 -0.013280 0.055781 212 150 129 255
-0.002939 -0.011852 0.055619 216 165 148 255
0.002172 0.109408 0.026441 30 23 30 255
-0.033139 0.003370 0.004642 42 31 29 255
-0.021281 0.137638 0.018999 34 28 32 255
0.001378 0.105784 0.026916 35 30 36 255
-0.032413 0.000882 0.005250 142 117 110 255
-0.033138 0.002853 0.004703 46 32 29 255
-0.001289 -0.015090 0.055158 193 132 113 255
0.001090 0.030042 0.042561 162 113 81 255
-0.001213 -0.016358 0.054940 180 113 96 255
-0.053123 0.112466 0.013237 47 41 45 255
0.000310 -0.018389 0.053980 151 88 71 255
0.008242 -0.010327 0.050345 236 185 166 255
0.081419 -0.027574 0.030051 161 126 98 255
0.082373 -0.036914 0.030345 126 93 76 255
0.079617 -0.054727 0.031501 59 45 44 255
0.079254 -0.038798 0.031852 158 122 106 255
0.073338 -0.064152 0.033019 81 62 55 255
0.072005 -0.054998 0.034579 68 55 49 255
0.066086 -0.074547 0.035076 58 43 38 255
0.067121 -0.062145 0.035731 73 50 42 255
-0.005684 -0.014679 0.056850 186 125 106 255
-0.004333 -0.016133 0.056209 178 111 94 255
0.060751 -0.080725 0.036878 37 28 21 255
0.062184 -0.068271 0.037506 75 57 47 255
-0.015307 0.020103 0.038319 30 16 16 255
-0.005577 -0.019742 0.055983 149 88 69 255
-0.006364 0.000887 0.054012 235 185 176 255
-0.013335 0.020427 0.037788 30 14 14 255
0.042765 -0.089451 0.043074 42 32 33 255
0.042472 -0.093827 0.042159 53 37 37 255
0.031575 -0.101274 0.043394 33 22 26 255
0.033163 -0.094070 0.045342 36 24 24 255
-0.007747 -0.020964 0.056639 135 82 64 255
0.020307 -0.104892 0.043136 29 16 23 255
0.022290 -0.098944 0.046648 34 19 26 255
0.009213 -0.105774 0.040749 32 16 17 255
0.012840 -0.100482 0.046381 36 24 26 255
-0.005093 0.007476 0.051363 222 174 154 255
-0.008552 0.018100 0.042067 152 100 79 255
0.013471 -0.091469 0.051791 49 30 32 255
0.013779 -0.095766 0.049380 39 24 29 255
-0.006216 0.004217 0.052895 228 180 158 255
-0.016224 -0.019255 0.054127 95 52 36 255
-0.014523 -0.021159 0.052791 88 49 34 255
-0.008106 -0.010589 0.057625 216 167 152 255
-0.008107 -0.009532 0.057501 224 172 158 255
0.023298 -0.088721 0.050092 45 29 30 255
-0.008104 -0.012699 0.057872 209 148 127 255
-0.005283 -0.013615 0.056699 196 138 118 255
0.023255 -0.093799 0.048514 37 21 22 255
-0.018992 0.020392 0.035645 27 17 16 255
-0.021536 0.021926 0.034922 24 16 13 255
-0.007032 -0.012179 0.057377 207 152 132 255
-0.005283 -0.013615 0.056699 196 138 118 255
-0.021012 0.020749 0.035383 30 25 22 255
-0.018195 0.020801 0.035542 24 12 12 255
-0.010452 -0.011973 0.058667 206 151 130 255
-0.003924 0.016872 0.048387 239 190 173 255
0.031329 -0.084333 0.048316 72 54 50 255
0.032260 -0.090933 0.046486 48 29 31 255
0.040107 -0.078974 0.045657 57 44 38 255
0.041908 -0.082390 0.044478 54 44 43 255
-0.011846 -0.014412 0.059046 193 131 110 255
0.045291 -0.070941 0.044375 78 60 50 255
0.049262 -0.073377 0.042586 75 60 53 255
0.006162 -0.104600 0.031065 42 30 30 255
-0.020165 0.020056 0.036123 24 16 14 255
-0.020564 0.020058 0.036150 23 15 13 255
-0.007786 -0.002245 0.055552 230 178 165 255
0.009934 -0.108294 0.029438 43 31 33 255
0.012931 -0.111185 0.028116 49 29 28 255
0.036872 -0.104836 0.040569 31 16 19 255
0.053819 -0.086819 0.038777 38 28 27 255
-0.022285 0.021230 0.035770 28 18 17 255
-0.001736 -0.017994 0.054802 161 98 80 255
-0.009279 -0.012511 0.058289 211 150 129 255
-0.009279 -0.012861 0.058326 209 148 129 255
-0.001959 -0.019635 0.054643 124 67 50 255
0.045791 -0.094106 0.040888 39 25 25 255
0.055366 -0.087518 0.038026 33 23 22 255
-0.011466 0.019425 0.038856 46 28 26 255
0.066115 -0.079366 0.034550 43 32 26 255
-0.004171 0.013370 0.049535 228 179 164 255
-0.004721 0.009913 0.050692 223 172 155 255
0.072924 -0.073396 0.032311 51 41 39 255
0.079924 -0.060538 0.030707 55 44 42 255
-0.003084 -0.016878 0.055490 175 108 89 255
0.083347 -0.037557 0.029993 132 99 82 255
0.083564 -0.025832 0.028975 164 128 106 255
0.022719 -0.084107 0.051401 71 52 48 255
0.013614 -0.086441 0.053374 74 45 39 255
0.031122 -0.079341 0.049192 78 55 47 255
-0.009207 -0.006715 0.057252 231 179 165 255
0.036857 -0.072941 0.047347 111 85 68 255
0.040820 -0.066138 0.045924 101 74 57 255
0.043428 -0.051970 0.044469 140 94 71 255
-0.004004 -0.019230 0.055454 145 86 70 255
0.042411 -0.058597 0.044946 122 84 65 255
0.040323 -0.038719 0.044594 100 68 55 255
0.041477 -0.045508 0.044577 95 59 43 255
0.049103 -0.031393 0.041710 188 139 106 255
0.048410 -0.038920 0.042627 151 105 82 255
0.045543 -0.043410 0.043703 154 103 84 255
-0.002938 -0.013280 0.055781 212 150 129 255
-0.007032 -0.012179 0.057377 207 152 132 255
0.044166 -0.036065 0.043302 149 102 76 255
0.051667 -0.024863 0.040418 208 159 129 255
0.055218 -0.034464 0.040562 177 122 92 255
0.006272 -0.105041 0.025333 39 23 24 255
-0.029310 0.032083 0.040415 69 43 30 255
-0.029334 0.030072 0.040281 60 31 23 255
0.009691 -0.108559 0.025871 38 22 22 255
0.007592 -0.103949 0.012126 65 41 31 255
0.008269 -0.104488 0.010337 65 37 33 255
0.008269 -0.104488 0.010337 65 37 33 255
0.007770 -0.103428 0.010247 64 42 31 255
0.007770 -0.103428 0.010247 64 42 31 255
-0.021264 0.037708 0.041739 51 32 28 255
-0.003556 0.036224 0.042878 135 78 59 255
-0.008345 0.036248 0.043202 123 70 52 255
0.071579 -0.077932 0.032202 32 22 20 255
-0.029053 0.025454 0.039001 22 8 5 255
-0.032146 0.024666 0.039299 24 9 6 255
-0.029029 0.026308 0.039261 37 19 15 255
-0.032146 0.024666 0.039299 24 9 6 255
-0.030650 0.024659 0.039198 21 10 6 255
0.081080 -0.068334 0.029369 47 37 38 255
-0.027881 0.025794 0.038513 29 14 11 255
0.083801 -0.045727 0.030174 108 85 69 255
-0.027881 0.025794 0.038513 29 14 11 255
0.008044 -0.104273 0.009967 62 39 31 255
-0.027767 0.036069 0.040572 40 25 18 255
0.008044 -0.104273 0.009967 62 39 31 255
0.008269 -0.104488 0.010337 65 37 33 255
-0.028279 0.025394 0.038589 22 8 5 255
-0.032146 0.024666 0.039299 24 9 6 255
0.007592 -0.103949 0.012126 65 41 31 255
-0.034909 0.021423 0.037333 45 27 23 255
0.006966 -0.103513 0.013201 63 39 29 255
0.000135 0.036965 0.042541 130 75 55 255
-0.019226 0.045792 0.042834 158 102 85 255
-0.048978 0.046061 0.028223 75 58 51 255
0.006699 -0.103830 0.009286 56 37 30 255
-0.051888 0.042546 0.024127 27 18 23 255
0.007698 -0.104897 0.009343 59 39 30 255
-0.047257 0.006841 0.032640 142 109 94 255
-0.047003 0.007618 0.028926 146 114 101 255
-0.016853 0.040834 0.042884 88 54 42 255
0.007698 -0.104897 0.009343 59 39 30 255
0.047403 -0.060585 0.043399 112 76 54 255
0.050723 -0.061480 0.042191 124 81 64 255
0.052309 -0.049496 0.042137 137 97 72 255
0.054778 -0.047762 0.041410 121 89 64 255
-0.024743 0.065161 0.036280 188 136 112 255
-0.035382 0.120730 0.018297 27 21 25 255
-0.023196 0.058225 0.039137 209 163 140 255
-0.038001 0.051510 0.037312 187 141 117 255
0.057011 -0.059812 0.040124 68 49 43 255
-0.035653 0.109518 0.021412 31 25 27 255
0.046873 -0.053329 0.043674 137 92 73 255
0.062674 -0.058769 0.037812 73 55 51 255
0.061959 -0.039887 0.038562 152 106 90 255
0.057959 -0.026882 0.038784 207 157 130 255
0.065100 -0.033828 0.036931 188 145 113 255
-0.046174 0.050121 0.033696 144 103 85 255
0.067957 -0.050076 0.036448 63 46 39 255
-0.046502 0.012721 0.025410 139 115 105 255
-0.006634 0.051403 0.041695 208 154 142 255
-0.047201 0.018779 0.023307 34 22 24 255
0.063046 -0.021201 0.036337 208 163 134 255
-0.013619 0.050679 0.042245 190 137 121 255
-0.053123 0.112466 0.013237 47 41 45 255
0.068234 -0.018251 0.034195 190 149 117 255
0.070386 -0.028103 0.034470 184 139 110 255
0.073413 -0.038283 0.034352 123 90 81 255
0.055179 -0.075246 0.039871 55 42 34 255
-0.010736 0.033087 0.042282 86 50 34 255
0.076929 -0.033510 0.032483 156 118 97 255
-0.037167 0.007240 0.038043 101 67 58 255
-0.040482 0.007151 0.037919 112 78 68 255
0.070278 -0.013645 0.032801 192 147 116 255
-0.053123 0.112466 0.013237 47 41 45 255
-0.047200 0.009921 0.027224 155 123 110 255
-0.030759 0.085548 0.029636 181 131 108 255
-0.007935 0.025557 0.041518 132 87 68 255
-0.008761 0.028807 0.042283 119 73 49 255
-0.032305 0.091618 0.026868 142 99 82 255
0.071755 -0.022923 0.033409 193 149 120 255
0.073120 -0.008160 0.031253 201 161 126 255
0.078289 -0.014788 0.029858 183 140 108 255
-0.037465 0.097297 0.022590 24 18 20 255
0.081413 -0.021214 0.029308 186 140 116 255
0.085606 -0.018495 0.027269 184 138 112 255
-0.035382 0.120730 0.018297 27 21 25 255
-0.020761 0.010181 0.040204 106 66 56 255
0.087751 -0.020126 0.026589 168 134 109 255
0.024475 -0.032303 0.048172 171 125 102 255
0.018461 -0.030083 0.049412 192 147 124 255
-0.049759 0.034439 0.023843 23 14 19 255
-0.050767 0.030252 0.018260 59 60 64 255
-0.053123 0.112466 0.013237 47 41 45 255
-0.029939 0.008626 0.039557 88 53 47 255
-0.048202 0.024251 0.022741 27 21 23 255
-0.034985 0.122887 0.018021 29 23 27 255
0.013720 -0.029244 0.050356 170 127 110 255
-0.047200 0.009028 0.027324 156 126 115 255
0.008504 -0.028557 0.051717 110 82 70 255
0.004188 -0.028249 0.053055 57 35 24 255
-0.030376 0.051675 0.040381 189 143 119 255
-0.034126 0.007427 0.038534 94 60 50 255
-0.007805 0.023036 0.040723 105 62 45 255
-0.016450 0.012257 0.040026 90 53 47 255
-0.012934 0.014321 0.039912 62 36 35 255
-0.037989 0.097868 0.022201 21 15 17 255
-0.009894 0.016458 0.040179 79 49 41 255
-0.008128 0.020228 0.040708 113 70 54 255
-0.025600 0.008803 0.039961 103 63 55 255
-0.026717 0.074482 0.034250 185 134 107 255
-0.053123 0.112466 0.013237 47 41 45 255
-0.043673 0.007178 0.036691 120 86 74 255
-0.021281 0.137638 0.018999 34 28 32 255
-0.000423 0.050974 0.041685 191 134 123 255
-0.009171 0.018117 0.040304 83 55 44 255
-0.013159 0.037770 0.042993 115 62 44 255
-0.021051 0.051893 0.041890 195 144 123 255
0.003397 -0.067593 0.052964 91 54 38 255
-0.029513 -0.039319 0.047967 72 42 32 255
-0.036159 -0.048449 0.030695 66 48 44 255
-0.031533 -0.054265 0.027083 54 44 42 255
-0.020071 -0.035801 0.052331 48 30 26 255
-0.023626 -0.043098 0.049446 55 32 24 255
-0.025990 -0.068363 0.043864 74 44 33 255
-0.034557 -0.050752 0.029415 53 44 39 255
-0.010796 -0.066307 0.053426 86 57 43 255
-0.033109 -0.052610 0.028807 59 48 46 255
-0.004086 -0.066786 0.053383 82 48 36 255
0.000898 -0.034143 0.053961 53 29 27 255
-0.009426 -0.033079 0.053825 36 22 19 255
-0.003716 -0.033616 0.053851 47 31 31 255
-0.014764 -0.034642 0.053640 34 20 19 255
-0.029940 -0.058780 0.030384 49 34 37 255
-0.028319 -0.061142 0.032352 48 32 35 255
0.002628 -0.015670 0.053873 202 141 120 255
0.002628 -0.015670 0.053873 202 141 120 255
0.016047 0.017913 0.038249 102 58 47 255
0.008722 -0.018674 0.050920 158 90 71 255
0.002274 -0.002003 0.050153 219 168 149 255
0.014374 0.018787 0.038623 111 70 52 255
0.010869 -0.019066 0.050102 159 91 72 255
0.004893 0.006049 0.046518 221 171 148 255
0.007809 0.016398 0.042590 196 141 111 255
0.003946 0.002906 0.047664 220 170 147 255
0.015286 -0.017773 0.048560 211 153 133 255
0.014188 -0.019279 0.048809 179 111 92 255
0.003325 -0.012406 0.053452 233 177 164 255
0.004497 -0.012590 0.053026 236 180 167 255
0.004899 -0.014409 0.053220 219 157 136 255
0.002153 -0.014395 0.054117 219 158 139 255
0.018118 0.017430 0.037808 94 53 47 255
0.022483 0.019321 0.036929 86 48 39 255
0.003325 -0.013494 0.053576 219 166 148 255
0.000880 -0.014207 0.054540 216 155 136 255
0.020411 0.018609 0.037516 89 51 42 255
0.016445 0.017910 0.038222 97 54 47 255
0.008118 -0.014235 0.051895 222 169 151 255
0.005988 0.014747 0.043994 215 164 137 255
0.012089 -0.015526 0.049970 218 163 143 255
0.018517 0.017427 0.037781 93 53 45 255
0.020012 0.018213 0.037582 90 52 43 255
0.002674 -0.003116 0.050251 222 171 152 255
0.022483 0.019321 0.036929 86 48 39 255
0.002481 -0.017499 0.053372 167 98 82 255
0.007245 -0.014417 0.052339 218 161 142 255
0.006071 -0.014233 0.052755 218 161 142 255
0.003132 -0.018986 0.052780 143 77 61 255
0.012627 0.018156 0.039538 128 84 59 255
0.005440 0.011508 0.045126 219 167 145 255
0.004493 0.008690 0.046235 219 169 146 255
0.002628 -0.015670 0.053873 202 141 120 255
0.005147 -0.011115 0.052096 237 188 173 255
0.006277 -0.018651 0.051807 152 80 65 255
0.002153 -0.014395 0.054117 219 158 139 255
0.028605 0.032648 0.037139 65 29 17 255
0.028158 0.031004 0.036635 65 35 27 255
0.020194 0.038619 0.038097 86 56 46 255
0.003204 0.036546 0.042022 128 73 53 255
0.007071 0.037267 0.041313 121 72 58 255
0.028812 0.026567 0.036379 28 20 17 255
0.029211 0.025772 0.036449 33 23 21 255
0.027938 0.027018 0.036749 27 16 12 255
0.029211 0.025772 0.036449 33 23 21 255
0.029210 0.026564 0.036352 30 22 19 255
0.027938 0.027018 0.036749 27 16 12 255
0.028812 0.026963 0.036340 27 17 15 255
0.026531 0.037772 0.037045 93 60 43 255
0.028812 0.026963 0.036340 27 17 15 255
0.030184 0.026110 0.035985 35 25 23 255
0.031932 0.025996 0.035157 32 22 20 255
0.018688 0.045981 0.040241 72 54 50 255
0.049875 0.047849 0.032852 100 80 69 255
0.053996 0.042276 0.032136 75 57 55 255
0.049156 0.005310 0.035654 205 162 130 255
0.052700 0.006289 0.034580 212 171 143 255
0.015175 0.042575 0.040515 47 31 32 255
0.023171 0.065409 0.034802 233 192 174 255
0.039522 0.106202 0.020302 18 12 14 255
0.021076 0.058653 0.037169 233 192 170 255
0.035974 0.051729 0.035873 221 188 169 255
0.034707 0.106143 0.021722 20 14 14 255
0.044533 0.051003 0.033575 220 187 168 255
0.057212 0.012464 0.032473 208 169 138 255
0.005063 0.051324 0.041265 201 143 132 255
0.058757 0.017610 0.031050 205 165 139 255
0.012223 0.051686 0.040381 210 164 148 255
0.039624 0.136102 0.018645 45 38 45 255
0.010643 0.033263 0.039726 126 76 53 255
0.038155 0.006092 0.037395 165 104 86 255
0.041424 0.005167 0.036914 169 113 90 255
0.039624 0.136102 0.018645 45 38 45 255
0.055841 0.010530 0.033150 212 173 142 255
0.027430 0.083855 0.029129 208 167 149 255
0.008204 0.026196 0.039989 121 76 55 255
0.009300 0.028530 0.039642 123 77 54 255
0.029996 0.091663 0.026244 167 121 106 255
0.031192 0.097897 0.023999 96 66 55 255
0.039522 0.106202 0.020302 18 12 14 255
0.021688 0.008577 0.039669 210 155 125 255
0.054976 0.033755 0.031247 117 79 60 255
0.058176 0.027898 0.030259 107 74 59 255
0.039624 0.136102 0.018645 45 38 45 255
0.031218 0.005550 0.038649 168 107 88 255
0.058354 0.022934 0.030468 120 80 68 255
0.039624 0.136102 0.018645 45 38 45 255
0.053099 0.007903 0.034367 216 175 147 255
0.029063 0.052084 0.037386 219 184 164 255
0.034886 0.005820 0.038004 163 101 86 255
0.008607 0.022689 0.040371 127 79 59 255
0.017322 0.010669 0.040088 198 147 116 255
0.013751 0.013526 0.040357 189 136 105 255
0.036080 0.103413 0.021590 29 19 18 255
0.011679 0.015969 0.040573 179 128 99 255
0.008831 0.020032 0.041016 150 103 73 255
0.026055 0.006874 0.039210 196 140 115 255
0.024938 0.074368 0.031835 221 179 157 255
0.039522 0.106202 0.020302 18 12 14 255
0.044867 0.006137 0.035847 184 132 108 255
0.010505 0.017613 0.040826 159 112 82 255
0.012286 0.037173 0.039888 117 71 56 255
0.020356 0.051304 0.039147 203 162 144 255
0.028603 -0.042863 0.046594 50 21 13 255
0.030575 -0.044684 0.046310 76 43 34 255
0.032176 -0.051724 0.047010 167 115 93 255
0.021311 -0.037391 0.049342 97 65 54 255
0.025956 -0.040796 0.047258 94 62 51 255
0.023453 -0.064338 0.049788 158 107 80 255
0.030976 -0.047814 0.046643 120 79 61 255
0.018089 -0.065549 0.050649 139 92 66 255
0.030977 -0.048985 0.046780 137 92 73 255
0.010258 -0.067182 0.052099 114 71 55 255
0.010404 -0.033786 0.052196 126 98 87 255
0.005763 -0.034775 0.053345 82 53 47 255
0.016317 -0.035273 0.050876 109 77 64 255
0.029884 -0.057184 0.047799 175 117 95 255
0.027116 -0.059215 0.048583 174 116 94 255
0.036025 0.024960 0.033549 29 19 18 255
-0.043349 0.019979 0.016412 29 20 21 255
0.028816 0.019828 0.037160 69 36 31 255
0.027395 0.019766 0.036907 73 40 35 255
0.025574 0.019706 0.036671 74 41 34 255
0.024877 0.020108 0.036679 68 39 35 255
0.028816 0.019828 0.037160 69 36 31 255
0.027394 0.020162 0.036858 66 37 33 255
0.025898 0.020569 0.036910 63 35 31 255
0.024875 0.020903 0.036581 57 32 28 255
0.028815 0.020224 0.037111 68 40 36 255
0.027717 0.021025 0.037098 64 39 35 255
0.026297 0.021362 0.036796 63 36 29 255
0.025173 0.022097 0.036424 55 31 27 255
0.029215 0.020621 0.037045 69 43 42 255
0.028016 0.021419 0.037028 62 37 40 255
0.026595 0.022156 0.036677 63 38 31 255
0.025348 0.023234 0.035916 54 30 28 255
0.029214 0.021017 0.036996 66 42 40 255
0.028415 0.022208 0.036914 72 48 44 255
0.026993 0.022950 0.036562 76 53 45 255
0.026370 0.024084 0.036108 81 59 46 255
0.029612 0.021014 0.036969 67 43 43 255
0.028814 0.022205 0.036887 72 48 46 255
0.028015 0.023796 0.036755 71 51 44 255
0.027316 0.024990 0.036665 71 54 46 255
0.030012 0.021012 0.036942 69 45 45 255
0.029213 0.022603 0.036811 69 45 41 255
0.028814 0.024187 0.036662 42 24 20 255
0.028414 0.024982 0.036591 38 20 16 255
0.030011 0.021407 0.036894 69 44 40 255
0.030012 0.022993 0.036718 49 30 26 255
0.029611 0.024581 0.036559 42 28 27 255
0.029211 0.025772 0.036449 33 23 21 255
0.030410 0.021405 0.036867 69 44 40 255
0.030411 0.022990 0.036691 45 27 25 255
0.030485 0.024520 0.036150 41 27 26 255
0.030484 0.025712 0.036004 36 26 25 255
0.030809 0.021402 0.036840 66 41 37 255
0.030810 0.022991 0.036664 42 24 22 255
0.031283 0.024118 0.036135 40 25 22 255
0.031458 0.025654 0.035588 35 25 23 255
0.031209 0.021007 0.036861 70 44 43 255
0.031906 0.022586 0.036629 39 23 23 255
0.032256 0.024056 0.035720 40 25 22 255
0.032731 0.024795 0.035240 36 25 23 255
0.031508 0.021005 0.036841 71 45 44 255
0.032306 0.022583 0.036602 37 21 21 255
0.032881 0.023314 0.036125 30 18 18 255
0.033928 0.023990 0.035247 29 15 12 255
0.031508 0.021005 0.036841 71 45 44 255
0.032705 0.021792 0.036672 39 21 21 255
0.033902 0.022576 0.036504 33 19 19 255
0.034951 0.023244 0.035626 28 18 17 255
0.031908 0.020606 0.036863 94 70 68 255
0.033104 0.021392 0.036684 55 34 31 255
0.034301 0.022180 0.036515 31 19 21 255
0.035574 0.022906 0.035982 26 17 20 255
0.031907 0.020209 0.036902 106 78 75 255
0.033503 0.020993 0.036706 65 41 39 255
0.035101 0.021382 0.036559 65 44 41 255
0.036197 0.022170 0.036387 45 33 33 255
0.032308 0.019810 0.036924 89 58 53 255
0.033902 0.020198 0.036767 102 74 71 255
0.035102 0.020590 0.036647 110 89 88 255
0.036373 0.020516 0.036201 96 72 72 255
0.032308 0.019810 0.036924 89 58 53 255
0.033903 0.019802 0.036816 87 56 51 255
0.035400 0.019795 0.036715 105 76 72 255
0.036772 0.020116 0.036223 104 76 75 255
0.032309 0.019414 0.036973 81 48 41 255
0.033903 0.019010 0.036904 84 53 50 255
0.035177 0.018932 0.036468 85 54 51 255
0.036375 0.018528 0.036436 97 66 61 255
0.031908 0.019021 0.037039 77 44 39 255
0.033505 0.018616 0.036980 87 56 53 255
0.034779 0.017743 0.036642 98 63 57 255
0.036152 0.017261 0.036239 104 71 62 255
0.031908 0.019021 0.037039 77 44 39 255
0.033283 0.017750 0.036743 99 65 56 255
0.034381 0.017346 0.036708 95 61 52 255
0.035753 0.016468 0.036354 107 67 59 255
0.031211 0.018630 0.037135 95 62 57 255
0.032885 0.017352 0.036809 104 70 60 255
0.034082 0.016552 0.036826 100 60 52 255
0.034957 0.015673 0.036506 104 60 51 255
0.031211 0.018630 0.037135 95 62 57 255
0.032485 0.016959 0.036885 101 63 54 255
0.033283 0.015761 0.036968 101 57 48 255
0.033760 0.014883 0.036675 119 67 54 255
0.031211 0.018630 0.037135 95 62 57 255
0.031688 0.016566 0.036978 98 53 47 255
0.032486 0.015368 0.037071 114 66 54 255
0.033061 0.014087 0.036810 132 80 67 255
0.030889 0.018160 0.036856 95 60 56 255
0.031288 0.016569 0.037005 97 52 46 255
0.031465 0.014892 0.036830 127 75 61 255
0.031863 0.014093 0.036891 134 81 67 255
0.030489 0.018163 0.036883 96 59 53 255
0.030890 0.016571 0.037032 97 52 46 255
0.030666 0.014898 0.036884 131 78 64 255
0.031465 0.013700 0.036967 142 89 75 255
0.030190 0.018161 0.036904 93 56 50 255
0.029866 0.016495 0.036752 100 53 43 255
0.029791 0.014987 0.037292 129 80 66 255
0.029393 0.013794 0.037456 140 88 75 255
0.029790 0.018164 0.036931 90 53 45 255
0.029392 0.016974 0.037095 96 51 45 255
0.028994 0.015385 0.037297 121 73 63 255
0.028195 0.014198 0.037488 139 87 74 255
0.029790 0.018164 0.036931 90 53 45 255
0.028594 0.016980 0.037149 97 53 44 255
0.027796 0.015791 0.037339 115 66 59 255
0.027397 0.014997 0.037454 127 77 66 255
0.029391 0.018563 0.036909 86 49 41 255
0.028370 0.017299 0.036765 88 48 40 255
0.027397 0.016589 0.037269 100 53 45 255
0.026300 0.015401 0.037480 121 73 63 255
0.028992 0.018566 0.036936 88 51 43 255
0.027970 0.017701 0.036744 85 46 39 255
0.026773 0.017310 0.036873 88 47 41 255
0.025576 0.017315 0.036955 91 50 44 255
0.030412 0.019821 0.037052 86 53 46 255
0.029216 0.019433 0.037182 76 39 31 255
0.027396 0.018574 0.037044 87 48 41 255
0.026374 0.017709 0.036852 84 45 38 255
0.025177 0.017318 0.036982 92 51 45 255
0.029216 0.019433 0.037182 76 39 31 255
0.027395 0.018970 0.036995 85 47 38 255
0.025575 0.018511 0.036808 83 44 37 255
0.024478 0.018515 0.036882 85 47 38 255
0.023279 0.019716 0.036826 78 44 35 255
0.022083 0.020120 0.036868 76 46 38 255
0.021059 0.021655 0.036392 61 35 34 255
0.020659 0.022058 0.036380 57 29 26 255
0.020261 0.022460 0.036358 46 20 19 255
0.021533 0.022793 0.035873 47 26 25 255
0.021533 0.022793 0.035873 47 26 25 255
0.022805 0.023529 0.035339 46 25 20 255
0.022805 0.023529 0.035339 46 25 20 255
0.022805 0.023529 0.035339 46 25 20 255
0.024800 0.023517 0.035204 49 28 25 255
0.024800 0.023517 0.035204 49 28 25 255
0.038522 0.025955 0.031824 21 14 8 255
0.023354 0.021245 0.036286 58 33 28 255
0.022331 0.022387 0.035858 45 24 21 255
0.021533 0.022793 0.035873 47 26 25 255
0.021533 0.022793 0.035873 47 26 25 255
0.021533 0.023193 0.035824 49 28 27 255
0.021532 0.023592 0.035775 46 25 22 255
0.022805 0.023932 0.035290 42 21 16 255
0.022805 0.023932 0.035290 42 21 16 255
0.022805 0.023932 0.035290 42 21 16 255
0.022805 0.023932 0.035290 42 21 16 255
0.024800 0.023517 0.035204 49 28 25 255
0.024800 0.023517 0.035204 49 28 25 255
0.038522 0.025955 0.031824 21 14 8 255
0.023928 0.022380 0.035760 47 23 23 255
0.022805 0.023529 0.035339 46 25 20 255
0.021533 0.023996 0.035736 45 21 19 255
0.021533 0.023996 0.035736 45 21 19 255
0.021533 0.023996 0.035736 45 21 19 255
0.022805 0.023932 0.035290 42 21 16 255
0.022805 0.023932 0.035290 42 21 16 255
0.022805 0.023932 0.035290 42 21 16 255
0.022805 0.023932 0.035290 42 21 16 255
0.023603 0.023926 0.035236 44 24 17 255
0.024402 0.023920 0.035182 50 26 22 255
0.024800 0.023517 0.035204 49 28 25 255
0.038522 0.025955 0.031824 21 14 8 255
0.024625 0.023578 0.035566 52 28 26 255
0.023204 0.023929 0.035264 42 21 16 255
0.021930 0.024792 0.035611 48 20 17 255
0.021930 0.024792 0.035611 48 20 17 255
0.020657 0.025655 0.035959 69 39 29 255
0.021930 0.024792 0.035611 48 20 17 255
0.022805 0.023932 0.035290 42 21 16 255
0.022805 0.023932 0.035290 42 21 16 255
0.022805 0.023932 0.035290 42 21 16 255
0.024402 0.023920 0.035182 50 26 22 255
0.024402 0.023920 0.035182 50 26 22 255
0.024800 0.023517 0.035204 49 28 25 255
0.038522 0.025955 0.031824 21 14 8 255
0.025347 0.024832 0.035730 66 43 35 255
0.024225 0.025583 0.035358 51 26 19 255
0.023351 0.026439 0.035679 62 33 25 255
0.022552 0.026445 0.035733 61 32 24 255
0.022552 0.026445 0.035733 61 32 24 255
0.022552 0.026445 0.035733 61 32 24 255
0.023827 0.025585 0.035385 52 27 20 255
0.023827 0.025585 0.035385 52 27 20 255
0.024225 0.025583 0.035358 51 26 19 255
0.024402 0.023920 0.035182 50 26 22 255
0.024402 0.023920 0.035182 50 26 22 255
0.036376 0.026882 0.032581 23 12 10 255
0.038522 0.025955 0.031824 21 14 8 255
0.025746 0.025230 0.035664 73 49 39 255
0.025171 0.026880 0.035876 58 28 20 255
0.024771 0.027280 0.035854 56 25 20 255
0.023098 0.029724 0.036044 60 32 28 255
0.023098 0.029724 0.036044 60 32 28 255
0.023098 0.029724 0.036044 60 32 28 255
0.023098 0.029724 0.036044 60 32 28 255
0.024624 0.025583 0.035331 53 29 17 255
0.024624 0.025583 0.035331 53 29 17 255
0.024624 0.025583 0.035331 53 29 17 255
0.035400 0.027341 0.032957 25 11 8 255
0.037249 0.027235 0.032123 21 10 8 255
0.038522 0.025955 0.031824 21 14 8 255
0.027314 0.026575 0.036480 46 31 24 255
0.027314 0.028555 0.036255 35 17 13 255
0.026515 0.029746 0.036172 55 30 23 255
0.024918 0.030943 0.036144 62 30 19 255
0.024517 0.031738 0.036073 63 29 19 255
0.024517 0.031738 0.036073 63 29 19 255
0.024517 0.031738 0.036073 63 29 19 255
0.032979 0.028299 0.034092 26 12 9 255
0.033953 0.028248 0.033677 26 12 9 255
0.035400 0.027341 0.032957 25 11 8 255
0.036375 0.027285 0.032532 24 10 7 255
0.037249 0.027235 0.032123 21 10 8 255
0.038522 0.025955 0.031824 21 14 8 255
0.029783 0.027305 0.035865 29 18 16 255
0.029385 0.028896 0.035716 37 18 14 255
0.029385 0.028896 0.035716 37 18 14 255
0.029607 0.030128 0.035914 58 35 27 255
0.031455 0.029638 0.035128 40 21 15 255
0.031930 0.029194 0.034785 29 14 11 255
0.033378 0.028699 0.034016 25 11 8 255
0.034826 0.028199 0.033258 24 10 7 255
0.035799 0.028148 0.032832 23 9 6 255
0.036673 0.028097 0.032423 23 9 6 255
0.037249 0.027235 0.032123 21 10 8 255
0.038222 0.027181 0.031707 20 9 7 255
0.039495 0.025901 0.031399 21 14 8 255
0.030659 0.026852 0.035505 30 19 13 255
0.031531 0.028797 0.034861 26 12 9 255
0.031930 0.029194 0.034785 29 14 11 255
0.032904 0.029147 0.034359 27 12 9 255
0.032904 0.029147 0.034359 27 12 9 255
0.034352 0.028649 0.033601 24 10 7 255
0.035225 0.028602 0.033182 23 9 6 255
0.036673 0.028097 0.032423 23 9 6 255
0.036673 0.028097 0.032423 23 9 6 255
0.037249 0.027235 0.032123 21 10 8 255
0.038222 0.027181 0.031707 20 9 7 255
0.038222 0.027181 0.031707 20 9 7 255
0.039495 0.025901 0.031399 21 14 8 255
0.031632 0.026798 0.035079 29 18 12 255
0.032504 0.028747 0.034436 26 12 9 255
0.033702 0.029544 0.034266 36 19 12 255
0.033702 0.029544 0.034266 36 19 12 255
0.035225 0.028602 0.033182 23 9 6 255
0.036023 0.029000 0.033088 26 11 8 255
0.036673 0.028097 0.032423 23 9 6 255
0.036673 0.028097 0.032423 23 9 6 255
0.038521 0.027590 0.031637 20 9 7 255
0.039495 0.027539 0.031212 21 10 8 255
0.038222 0.027181 0.031707 20 9 7 255
0.038222 0.027181 0.031707 20 9 7 255
0.040469 0.025432 0.031032 25 15 13 255
0.032906 0.025941 0.034732 29 19 17 255
0.033953 0.028248 0.033677 26 12 9 255
0.035225 0.028602 0.033182 23 9 6 255
0.036023 0.029000 0.033088 26 11 8 255
0.036820 0.029402 0.032985 35 18 11 255
0.038446 0.028452 0.031904 23 9 6 255
0.039892 0.027946 0.031136 21 10 6 255
0.039892 0.027946 0.031136 21 10 6 255
0.041342 0.027435 0.030377 20 10 8 255
0.041342 0.027435 0.030377 20 10 8 255
0.041342 0.027435 0.030377 20 10 8 255
0.041342 0.026199 0.030515 21 13 10 255
0.041343 0.025374 0.030613 31 21 19 255
0.034179 0.025078 0.034384 31 21 19 255
0.035400 0.027341 0.032957 25 11 8 255
0.036673 0.028097 0.032423 23 9 6 255
0.038446 0.028452 0.031904 23 9 6 255
0.039418 0.028401 0.031478 22 8 5 255
0.039892 0.027946 0.031136 21 10 6 255
0.041342 0.027435 0.030377 20 10 8 255
0.041342 0.027435 0.030377 20 10 8 255
0.041342 0.027435 0.030377 20 10 8 255
0.041342 0.027435 0.030377 20 10 8 255
0.041342 0.027435 0.030377 20 10 8 255
0.041342 0.026199 0.030515 21 13 10 255
0.041343 0.025374 0.030613 31 21 19 255
0.034978 0.024269 0.034418 27 17 16 255
0.036200 0.026121 0.033041 23 14 9 255
0.038222 0.027181 0.031707 20 9 7 255
0.039495 0.027539 0.031212 21 10 8 255
0.040867 0.027895 0.030720 20 9 5 255
0.041342 0.027435 0.030377 20 10 8 255
0.042315 0.026972 0.030001 18 10 8 255
0.042315 0.026972 0.030001 18 10 8 255
0.042315 0.026972 0.030001 18 10 8 255
0.043289 0.026505 0.029634 19 14 11 255
0.042315 0.026558 0.030050 19 14 11 255
0.042316 0.025320 0.030198 37 27 25 255
0.041343 0.025374 0.030613 31 21 19 255
0.036548 0.023237 0.035518 32 23 26 255
0.038198 0.024082 0.033141 34 26 24 255
0.039022 0.025544 0.031839 24 14 12 255
0.040469 0.026664 0.030884 20 15 11 255
0.042315 0.026972 0.030001 18 10 8 255
0.043289 0.026505 0.029634 19 14 11 255
0.043289 0.026505 0.029634 19 14 11 255
0.043289 0.026505 0.029634 19 14 11 255
0.043289 0.026505 0.029634 19 14 11 255
0.043289 0.026505 0.029634 19 14 11 255
0.043290 0.026090 0.029683 21 16 12 255
0.042316 0.025320 0.030198 37 27 25 255
0.041343 0.025374 0.030613 31 21 19 255
0.036771 0.022897 0.035901 31 19 23 255
0.038570 0.023851 0.034224 47 43 44 255
0.040520 0.024312 0.031876 52 44 42 255
0.041842 0.024961 0.030629 40 30 28 255
0.042316 0.025320 0.030198 37 27 25 255
0.043689 0.025673 0.029696 30 23 17 255
0.043290 0.026090 0.029683 21 16 12 255
0.043290 0.026090 0.029683 21 16 12 255
0.043290 0.026090 0.029683 21 16 12 255
0.043290 0.026090 0.029683 21 16 12 255
0.043290 0.026090 0.029683 21 16 12 255
0.042316 0.025320 0.030198 37 27 25 255
0.041343 0.025374 0.030613 31 21 19 255
0.037570 0.021302 0.036033 83 61 63 255
0.039466 0.021297 0.035904 90 66 66 255
0.041018 0.024309 0.031842 53 44 45 255
0.042465 0.024600 0.030986 48 40 38 255
0.043512 0.024901 0.030156 43 33 31 255
0.043689 0.025673 0.029696 30 23 17 255
0.043689 0.025673 0.029696 30 23 17 255
0.043689 0.025673 0.029696 30 23 17 255
0.043689 0.025673 0.029696 30 23 17 255
0.043689 0.025673 0.029696 30 23 17 255
0.042316 0.025320 0.030198 37 27 25 255
0.042316 0.025320 0.030198 37 27 25 255
0.041343 0.025374 0.030613 31 21 19 255
0.037971 0.019711 0.036192 83 52 50 255
0.039642 0.018838 0.035817 84 53 48 255
0.041538 0.018829 0.035689 104 73 68 255
0.042465 0.024600 0.030986 48 40 38 255
0.043512 0.024901 0.030156 43 33 31 255
0.043512 0.024901 0.030156 43 33 31 255
0.043512 0.024901 0.030156 43 33 31 255
0.043689 0.025673 0.029696 30 23 17 255
0.043689 0.025673 0.029696 30 23 17 255
0.043689 0.025673 0.029696 30 23 17 255
0.042316 0.025320 0.030198 37 27 25 255
0.042316 0.025320 0.030198 37 27 25 255
0.041343 0.025374 0.030613 31 21 19 255
0.037648 0.018049 0.036050 109 78 73 255
0.039643 0.018039 0.035915 98 63 57 255
0.041416 0.017957 0.035436 110 75 69 255
0.043487 0.017070 0.035044 109 75 63 255
0.043487 0.017070 0.035044 109 75 63 255
0.043512 0.024901 0.030156 43 33 31 255
0.043512 0.024901 0.030156 43 33 31 255
0.043512 0.024901 0.030156 43 33 31 255
0.043512 0.024901 0.030156 43 33 31 255
0.042316 0.025320 0.030198 37 27 25 255
0.042316 0.025320 0.030198 37 27 25 255
0.042316 0.025320 0.030198 37 27 25 255
0.041343 0.025374 0.030613 31 21 19 255
0.037250 0.016856 0.036214 109 75 66 255
0.039022 0.015572 0.035882 112 72 60 255
0.040619 0.015964 0.035725 114 76 65 255
0.043487 0.015867 0.035181 114 74 64 255
0.043487 0.015867 0.035181 114 74 64 255
0.043487 0.016267 0.035132 105 67 56 255
0.043512 0.024901 0.030156 43 33 31 255
0.043512 0.024901 0.030156 43 33 31 255
0.043512 0.024901 0.030156 43 33 31 255
0.042316 0.025320 0.030198 37 27 25 255
0.042316 0.025320 0.030198 37 27 25 255
0.042316 0.025320 0.030198 37 27 25 255
0.041343 0.025374 0.030613 31 21 19 255
0.037126 0.015582 0.036010 105 60 54 255
0.038225 0.014775 0.036024 125 78 62 255
0.039822 0.013967 0.036004 142 93 76 255
0.042292 0.013470 0.035537 156 105 86 255
0.042292 0.013470 0.035537 156 105 86 255
0.042292 0.013470 0.035537 156 105 86 255
0.042691 0.014271 0.035421 144 98 75 255
0.043512 0.024901 0.030156 43 33 31 255
0.043512 0.024901 0.030156 43 33 31 255
0.042316 0.025320 0.030198 37 27 25 255
0.042316 0.025320 0.030198 37 27 25 255
0.042316 0.025320 0.030198 37 27 25 255
0.041343 0.025374 0.030613 31 21 19 255
0.036329 0.014784 0.036152 122 74 62 255
0.037128 0.013583 0.036235 143 94 79 255
0.038226 0.012779 0.036249 150 99 82 255
0.039423 0.011971 0.036266 163 110 94 255
0.042293 0.011867 0.035723 168 116 95 255
0.042293 0.011867 0.035723 168 116 95 255
0.042293 0.012267 0.035674 164 113 92 255
0.042292 0.013470 0.035537 156 105 86 255
0.042292 0.013470 0.035537 156 105 86 255
0.041842 0.024961 0.030629 40 30 28 255
0.042316 0.025320 0.030198 37 27 25 255
0.042316 0.025320 0.030198 37 27 25 255
0.041343 0.025374 0.030613 31 21 19 255
0.034557 0.013681 0.036758 140 88 74 255
0.035930 0.012389 0.036453 154 102 89 255
0.036329 0.012390 0.036426 155 103 90 255
0.037529 0.009586 0.036668 169 110 94 255
0.038228 0.009581 0.036621 173 111 96 255
0.039026 0.010374 0.036479 169 112 95 255
0.039024 0.011174 0.036381 165 113 92 255
0.038626 0.011976 0.036320 159 106 92 255
0.037928 0.012777 0.036269 149 97 83 255
0.041842 0.024961 0.030629 40 30 28 255
0.041842 0.024961 0.030629 40 30 28 255
0.041343 0.025374 0.030613 31 21 19 255
0.041343 0.025374 0.030613 31 21 19 255
0.040469 0.025432 0.031032 25 15 13 255
0.033361 0.013289 0.036888 141 88 74 255
0.034161 0.011692 0.037020 158 102 87 255
0.035534 0.009593 0.036803 167 106 88 255
