-0.024943 0.028549 0.035555 255 255 255 255
-0.022285 0.027219 0.035475 255 255 255 255
-0.033398 0.028258 0.036915 255 255 255 255
-0.034563 0.028327 0.036962 255 255 255 255
-0.022542 0.018222 0.034694 255 255 255 255
-0.019350 0.019210 0.034537 255 255 255 255
-0.022933 0.018245 0.034709 255 255 255 255
-0.020108 0.019647 0.034559 255 255 255 255
-0.023405 0.019043 0.033710 255 255 255 255
-0.019718 0.019623 0.034543 255 255 255 255
-0.018546 0.019554 0.034496 255 255 255 255
-0.023383 0.019435 0.033699 255 255 255 255
-0.018961 0.021140 0.033475 255 255 255 255
-0.017307 0.020658 0.034419 255 255 255 255
-0.016543 0.022177 0.033350 255 255 255 255
-0.016503 0.021002 0.034377 255 255 255 255
-0.019377 0.025487 0.034392 255 255 255 255
-0.020617 0.024383 0.034470 255 255 255 255
-0.017765 0.019508 0.034465 255 255 255 255
-0.018592 0.018773 0.034516 255 255 255 255
-0.016962 0.019853 0.034423 255 255 255 255
-0.017309 0.018711 0.035465 255 255 255 255
-0.025021 0.016015 0.034848 255 255 255 255
-0.023459 0.015922 0.034785 255 255 255 255
-0.021025 0.017347 0.034651 255 255 255 255
-0.020290 0.016519 0.034639 255 255 255 255
-0.032759 0.012051 0.032260 255 255 255 255
-0.035676 0.012189 0.031378 255 255 255 255
-0.030780 0.009603 0.033236 255 255 255 255
-0.034540 0.008597 0.032415 255 255 255 255
-0.025730 0.010565 0.035005 255 255 255 255
-0.027617 0.014178 0.033999 255 255 255 255
-0.018117 -0.104368 -0.002681 255 255 255 255
-0.045194 0.014183 0.026722 255 255 255 255
-0.047692 0.012247 0.024869 255 255 255 255
-0.044533 0.011731 0.026752 255 255 255 255
-0.043459 0.013309 0.027672 255 255 255 255
-0.042084 0.013261 0.028616 255 255 255 255
-0.043129 0.012087 0.027686 255 255 255 255
-0.041029 0.010799 0.028630 255 255 255 255
-0.040319 0.013190 0.029546 255 255 255 255
-0.038167 0.013096 0.030459 255 255 255 255
-0.037840 0.011883 0.030474 255 255 255 255
-0.049362 0.017963 0.022804 255 255 255 255
-0.049579 0.021228 0.022737 255 255 255 255
-0.051250 0.016831 0.021908 255 255 255 255
-0.052839 0.020987 0.020876 255 255 255 255
-0.015953 0.023716 0.034291 255 255 255 255
-0.015699 0.021347 0.034335 255 255 255 255
-0.013752 0.024366 0.036186 255 255 255 255
-0.013990 0.022035 0.035249 255 255 255 255
-0.015019 0.027550 0.037166 255 255 255 255
-0.017657 0.026163 0.035306 255 255 255 255
-0.015706 0.019399 0.035382 255 255 255 255
-0.016140 0.018642 0.035418 255 255 255 255
-0.014045 0.019313 0.036316 255 255 255 255
-0.015751 0.018619 0.035402 255 255 255 255
-0.023205 0.013554 0.034830 255 255 255 255
-0.022389 0.011971 0.035834 255 255 255 255
-0.019532 0.016082 0.034618 255 255 255 255
-0.018314 0.014859 0.035597 255 255 255 255
-0.046451 0.034958 0.034300 255 255 255 255
-0.044816 0.032520 0.033288 255 255 255 255
-0.040705 0.033002 0.036108 255 255 255 255
-0.043066 0.036240 0.037132 255 255 255 255
-0.049994 0.038348 0.033368 255 255 255 255
-0.051802 0.035005 0.029517 255 255 255 255
-0.048126 0.033172 0.030407 255 255 255 255
-0.046421 0.031861 0.031368 255 255 255 255
-0.049220 0.024057 0.023657 255 255 255 255
-0.048151 0.025211 0.024587 255 255 255 255
-0.048244 0.027234 0.025545 255 255 255 255
-0.049803 0.028132 0.025589 255 255 255 255
-0.052831 0.024668 0.021791 255 255 255 255
-0.053021 0.028335 0.023716 255 255 255 255
-0.050315 0.029765 0.026573 255 255 255 255
-0.047529 0.029579 0.028463 255 255 255 255
-0.052200 0.031886 0.026602 255 255 255 255
-0.023139 0.032674 0.038387 255 255 255 255
-0.024155 0.030813 0.037471 255 255 255 255
-0.021293 0.028712 0.036400 255 255 255 255
-0.019306 0.029375 0.036301 255 255 255 255
-0.021234 0.034442 0.040268 255 255 255 255
-0.016798 0.030378 0.037174 255 255 255 255
-0.036671 0.036931 0.039853 255 255 255 255
-0.035295 0.033027 0.037884 255 255 255 255
-0.024554 0.028526 0.035539 255 255 255 255
-0.022674 0.027242 0.035490 255 255 255 255
-0.024399 0.028896 0.036525 255 255 255 255
-0.022262 0.027609 0.035465 255 255 255 255
-0.041163 0.027571 0.033250 255 255 255 255
-0.040550 0.028316 0.034209 255 255 255 255
-0.042128 0.027635 0.032288 255 255 255 255
-0.042353 0.026861 0.031314 255 255 255 255
-0.043551 0.026143 0.029379 255 255 255 255
-0.043902 0.026961 0.029374 255 255 255 255
-0.045558 0.025463 0.027476 255 255 255 255
-0.045534 0.025863 0.027466 255 255 255 255
-0.046260 0.023494 0.026550 255 255 255 255
-0.046825 0.023925 0.025562 255 255 255 255
-0.022240 0.027999 0.035454 255 255 255 255
-0.024765 0.029307 0.036531 255 255 255 255
-0.045421 0.075852 0.024294 255 255 255 255
-0.053114 0.072495 0.019688 255 255 255 255
-0.050513 0.064461 0.024772 255 255 255 255
-0.041611 0.030345 0.034206 255 255 255 255
-0.043445 0.028512 0.031322 255 255 255 255
-0.045001 0.028621 0.029382 255 255 255 255
-0.046521 0.025922 0.026504 255 255 255 255
-0.047512 0.025981 0.025543 255 255 255 255
-0.072351 0.023539 -0.004399 255 255 255 255
-0.071246 -0.003040 -0.001824 255 255 255 255
-0.065410 -0.001903 0.011922 255 255 255 255
-0.067635 0.008482 0.006767 255 255 255 255
-0.030848 -0.053359 0.040712 255 255 255 255
-0.028861 -0.054803 0.041664 255 255 255 255
-0.056245 -0.013228 0.024819 255 255 255 255
-0.051165 -0.015909 0.028674 255 255 255 255
-0.024725 -0.045354 0.045276 255 255 255 255
-0.025552 -0.046452 0.045336 255 255 255 255
-0.023919 -0.044637 0.045226 255 255 255 255
-0.024703 -0.044973 0.045266 255 255 255 255
-0.023897 -0.044256 0.045216 255 255 255 255
-0.024771 -0.044017 0.044246 255 255 255 255
-0.024300 -0.044614 0.045241 255 255 255 255
-0.023875 -0.043875 0.045206 255 255 255 255
-0.028855 -0.030962 0.045113 255 255 255 255
-0.030587 -0.027095 0.042092 255 255 255 255
-0.033294 -0.031337 0.041302 255 255 255 255
-0.031874 -0.034394 0.044318 255 255 255 255
-0.027774 -0.045001 0.042391 255 255 255 255
-0.027751 -0.044617 0.042382 255 255 255 255
-0.024749 -0.043635 0.044236 255 255 255 255
-0.026910 -0.045624 0.043371 255 255 255 255
-0.028582 -0.052281 0.042595 255 255 255 255
-0.026888 -0.045241 0.043361 255 255 255 255
-0.030791 -0.048115 0.041589 255 255 255 255
-0.027729 -0.044233 0.042372 255 255 255 255
-0.034029 -0.052225 0.039817 255 255 255 255
-0.031288 -0.050019 0.041654 255 255 255 255
-0.031494 -0.046913 0.041590 255 255 255 255
-0.034781 -0.047697 0.040744 255 255 255 255
-0.024115 -0.019514 0.043647 255 255 255 255
-0.028726 -0.023981 0.042943 255 255 255 255
-0.025450 -0.027192 0.045884 255 255 255 255
-0.022149 -0.022811 0.045644 255 255 255 255
-0.019463 -0.017893 0.046419 255 255 255 255
-0.020569 -0.015279 0.045403 255 255 255 255
-0.016013 -0.011601 0.050133 255 255 255 255
-0.017171 -0.014052 0.051240 255 255 255 255
-0.016425 -0.015133 0.055238 255 255 255 255
-0.016155 -0.013145 0.053178 255 255 255 255
-0.015801 -0.019871 0.053320 255 255 255 255
-0.017792 -0.016381 0.050319 255 255 255 255
-0.011649 -0.022081 0.055201 255 255 255 255
-0.011526 -0.021584 0.056185 255 255 255 255
-0.016048 -0.020488 0.051343 255 255 255 255
-0.016204 -0.021360 0.050368 255 255 255 255
-0.012859 -0.022145 0.054252 255 255 255 255
-0.012116 -0.020679 0.057190 255 255 255 255
-0.013646 -0.019982 0.056236 255 255 255 255
-0.015956 -0.017139 0.057268 255 255 255 255
-0.006573 -0.020179 0.065957 255 255 255 255
-0.007488 -0.018921 0.066967 255 255 255 255
-0.007733 0.013118 0.050213 255 255 255 255
-0.010991 0.008642 0.046449 255 255 255 255
-0.007728 0.010197 0.052283 255 255 255 255
-0.011358 0.007195 0.047499 255 255 255 255
-0.014605 -0.013822 0.061139 255 255 255 255
-0.014765 -0.012941 0.059123 255 255 255 255
-0.011970 -0.012806 0.065010 255 255 255 255
-0.011612 -0.011136 0.063955 255 255 255 255
-0.003113 0.028207 0.049669 255 255 255 255
-0.005228 -0.023911 0.062985 255 255 255 255
-0.006034 -0.024006 0.062019 255 255 255 255
-0.005123 -0.023414 0.063970 255 255 255 255
-0.005555 -0.039455 0.061358 255 255 255 255
-0.006048 -0.035424 0.061285 255 255 255 255
-0.016933 -0.042168 0.051885 255 255 255 255
-0.008120 -0.044139 0.055567 255 255 255 255
-0.008489 -0.044117 0.055582 255 255 255 255
-0.016117 -0.042771 0.052866 255 255 255 255
-0.019536 -0.042594 0.049000 255 255 255 255
-0.019913 -0.042571 0.049015 255 255 255 255
-0.018501 -0.041517 0.050934 255 255 255 255
-0.009921 -0.043291 0.055623 255 255 255 255
-0.011539 -0.044136 0.054709 255 255 255 255
-0.006927 -0.044009 0.056516 255 255 255 255
-0.006064 -0.043124 0.057460 255 255 255 255
-0.011909 -0.044114 0.054724 255 255 255 255
-0.018819 -0.023737 0.048530 255 255 255 255
-0.014729 -0.023564 0.051359 255 255 255 255
-0.010628 -0.023623 0.055194 255 255 255 255
-0.008550 -0.024062 0.058121 255 255 255 255
-0.007686 -0.023239 0.059067 255 255 255 255
-0.010120 -0.022775 0.056154 255 255 255 255
-0.008029 -0.022853 0.059072 255 255 255 255
-0.009657 -0.022665 0.057134 255 255 255 255
-0.009519 -0.021802 0.058109 255 255 255 255
-0.009863 -0.021415 0.058114 255 255 255 255
-0.008238 -0.021608 0.060053 255 255 255 255
-0.009285 -0.020816 0.060078 255 255 255 255
-0.007896 -0.021993 0.060048 255 255 255 255
-0.004765 0.004792 0.065300 255 255 255 255
-0.004343 0.008620 0.063191 255 255 255 255
-0.010606 -0.034217 0.058443 255 255 255 255
-0.004555 -0.033500 0.060177 255 255 255 255
-0.002877 -0.030883 0.061047 255 255 255 255
-0.009901 -0.028386 0.058278 255 255 255 255
-0.014722 -0.030417 0.055523 255 255 255 255
-0.015343 -0.036497 0.056692 255 255 255 255
-0.006802 -0.023376 0.061036 255 255 255 255
-0.009906 -0.036281 0.059464 255 255 255 255
-0.010237 -0.040478 0.058574 255 255 255 255
-0.015974 -0.039231 0.055781 255 255 255 255
-0.015783 -0.040543 0.054802 255 255 255 255
-0.019599 -0.038455 0.052910 255 255 255 255
-0.018859 -0.032148 0.052733 255 255 255 255
-0.025475 -0.034305 0.049054 255 255 255 255
-0.023323 -0.040668 0.048112 255 255 255 255
-0.031185 -0.044028 0.042511 255 255 255 255
-0.026432 -0.046220 0.044366 255 255 255 255
-0.026343 -0.044691 0.044327 255 255 255 255
-0.025894 -0.043567 0.044282 255 255 255 255
-0.029939 -0.040644 0.044382 255 255 255 255
-0.033988 -0.043285 0.041610 255 255 255 255
-0.033423 -0.038702 0.043481 255 255 255 255
-0.028346 -0.037696 0.046250 255 255 255 255
-0.024391 -0.041742 0.046179 255 255 255 255
-0.025579 -0.044736 0.044296 255 255 255 255
-0.024681 -0.044592 0.045256 255 255 255 255
-0.025061 -0.044569 0.045272 255 255 255 255
-0.024278 -0.044233 0.045231 255 255 255 255
-0.023384 -0.044089 0.046192 255 255 255 255
-0.023407 -0.044470 0.046201 255 255 255 255
-0.022518 -0.044325 0.047162 255 255 255 255
-0.022408 -0.042430 0.047113 255 255 255 255
-0.023853 -0.043494 0.045196 255 255 255 255
-0.022603 -0.043755 0.046151 255 255 255 255
-0.022562 -0.045082 0.047182 255 255 255 255
-0.023808 -0.044827 0.046226 255 255 255 255
-0.025153 -0.043994 0.044261 255 255 255 255
-0.024256 -0.043852 0.045221 255 255 255 255
-0.024727 -0.043253 0.044226 255 255 255 255
-0.022581 -0.043374 0.046142 255 255 255 255
-0.025557 -0.044354 0.044286 255 255 255 255
-0.025131 -0.043612 0.044251 255 255 255 255
-0.025105 -0.045331 0.045291 255 255 255 255
-0.024210 -0.045185 0.046252 255 255 255 255
-0.022983 -0.043732 0.046167 255 255 255 255
-0.022540 -0.044703 0.047172 255 255 255 255
-0.015611 -0.042233 0.053833 255 255 255 255
-0.018897 -0.041869 0.050958 255 255 255 255
-0.019083 -0.043181 0.049996 255 255 255 255
-0.016976 -0.042915 0.051904 255 255 255 255
-0.019480 -0.043535 0.050020 255 255 255 255
-0.022742 -0.041650 0.047109 255 255 255 255
-0.018257 -0.043786 0.050976 255 255 255 255
-0.022559 -0.042994 0.046132 255 255 255 255
-0.025806 -0.042038 0.044243 255 255 255 255
-0.021695 -0.043233 0.047102 255 255 255 255
-0.027685 -0.043464 0.042352 255 255 255 255
-0.025087 -0.042848 0.044231 255 255 255 255
-0.027707 -0.043848 0.042362 255 255 255 255
-0.028001 -0.042288 0.042338 255 255 255 255
-0.021234 -0.043824 0.048098 255 255 255 255
-0.019084 -0.040542 0.051936 255 255 255 255
-0.011599 -0.041887 0.056661 255 255 255 255
-0.005809 -0.041281 0.059409 255 255 255 255
-0.004732 -0.002961 0.071486 255 255 255 255
-0.004740 0.001055 0.068390 255 255 255 255
-0.024232 -0.045565 0.046261 255 255 255 255
-0.008540 -0.109961 -0.004953 255 255 255 255
-0.026454 -0.046602 0.044376 255 255 255 255
-0.029542 -0.053216 0.041655 255 255 255 255
-0.027293 -0.045602 0.043387 255 255 255 255
-0.031050 -0.056838 0.040801 255 255 255 255
-0.026769 -0.060873 0.042719 255 255 255 255
-0.024740 -0.056673 0.044539 255 255 255 255
-0.028265 -0.053457 0.042609 255 255 255 255
-0.022761 -0.050557 0.048319 255 255 255 255
-0.025168 -0.048559 0.046370 255 255 255 255
-0.023429 -0.046932 0.047261 255 255 255 255
-0.021746 -0.048133 0.049221 255 255 255 255
-0.020824 -0.047224 0.050162 255 255 255 255
-0.023385 -0.046174 0.047241 255 255 255 255
-0.020333 -0.043303 0.049049 255 255 255 255
-0.016954 -0.042542 0.051894 255 255 255 255
-0.018794 -0.048428 0.052108 255 255 255 255
-0.023270 -0.050743 0.047343 255 255 255 255
-0.025597 -0.047214 0.045356 255 255 255 255
-0.022961 -0.043352 0.046157 255 255 255 255
-0.019877 -0.043888 0.050045 255 255 255 255
-0.022117 -0.043968 0.047137 255 255 255 255
-0.015740 -0.044460 0.053891 255 255 255 255
-0.013674 -0.107905 -0.004786 255 255 255 255
-0.022940 -0.045060 0.047197 255 255 255 255
-0.020296 -0.044617 0.050080 255 255 255 255
-0.015719 -0.044089 0.053881 255 255 255 255
-0.017864 -0.047150 0.053041 255 255 255 255
-0.017687 -0.050523 0.053112 255 255 255 255
-0.018031 -0.052819 0.051177 255 255 255 255
-0.019136 -0.059869 0.048384 255 255 255 255
-0.020277 -0.064606 0.047541 255 255 255 255
-0.012897 -0.061389 0.051163 255 255 255 255
-0.012909 -0.066536 0.050282 255 255 255 255
-0.012510 -0.054478 0.054990 255 255 255 255
-0.012825 -0.050307 0.056909 255 255 255 255
-0.010710 -0.045632 0.056711 255 255 255 255
-0.010765 -0.045093 0.055700 255 255 255 255
-0.007296 -0.024217 0.060075 255 255 255 255
-0.008601 -0.021586 0.060068 255 255 255 255
-0.006902 -0.021643 0.063002 255 255 255 255
-0.008732 -0.017293 0.067983 255 255 255 255
-0.004577 -0.022805 0.065935 255 255 255 255
-0.010653 -0.013619 0.067977 255 255 255 255
-0.010239 -0.014239 0.068975 255 255 255 255
-0.009388 -0.011805 0.068883 255 255 255 255
-0.009841 -0.011887 0.067903 255 255 255 255
-0.007701 -0.016273 0.070919 255 255 255 255
-0.008585 -0.011743 0.069849 255 255 255 255
-0.005500 -0.017559 0.072860 255 255 255 255
-0.006133 -0.011803 0.073753 255 255 255 255
-0.004437 -0.006660 0.073563 255 255 255 255
-0.004901 -0.010024 0.074661 255 255 255 255
-0.008620 -0.010785 0.068827 255 255 255 255
-0.009105 -0.009896 0.066825 255 255 255 255
-0.008417 -0.007266 0.064732 255 255 255 255
-0.011374 -0.009910 0.061914 255 255 255 255
-0.009226 -0.044073 0.055612 255 255 255 255
-0.008858 -0.044095 0.055597 255 255 255 255
-0.020873 -0.059870 0.046454 255 255 255 255
-0.018399 -0.055512 0.049253 255 255 255 255
-0.008342 -0.060531 0.050953 255 255 255 255
-0.007018 -0.062362 0.049939 255 255 255 255
-0.006905 -0.043641 0.056506 255 255 255 255
-0.008879 -0.044464 0.055607 255 255 255 255
-0.009248 -0.044442 0.055621 255 255 255 255
-0.005028 -0.044290 0.057444 255 255 255 255
-0.004704 -0.045045 0.057448 255 255 255 255
-0.006536 -0.046202 0.058553 255 255 255 255
-0.004183 -0.060026 0.050768 255 255 255 255
-0.004017 -0.062539 0.049818 255 255 255 255
-0.026611 -0.053718 0.043547 255 255 255 255
-0.027291 -0.056600 0.042641 255 255 255 255
-0.023755 -0.054970 0.045459 255 255 255 255
-0.023031 -0.060225 0.044550 255 255 255 255
-0.007589 -0.068200 0.052101 255 255 255 255
-0.007307 -0.062096 0.050946 255 255 255 255
-0.006123 -0.052972 0.059694 255 255 255 255
-0.007243 -0.055806 0.056804 255 255 255 255
-0.073159 0.081338 0.000295 255 255 255 255
-0.067056 0.071861 0.008270 255 255 255 255
-0.055345 0.080704 0.014584 255 255 255 255
-0.060156 0.085220 0.008673 255 255 255 255
-0.070857 0.087077 0.001067 255 255 255 255
-0.066649 0.088074 0.003871 255 255 255 255
-0.069343 0.117136 -0.007706 255 255 255 255
-0.069368 0.116699 -0.007695 255 255 255 255
-0.068344 0.115103 -0.006699 255 255 255 255
-0.048761 0.125286 0.004261 255 255 255 255
-0.068369 0.114667 -0.006688 255 255 255 255
-0.048290 0.126105 0.004222 255 255 255 255
-0.028233 0.138848 0.013100 255 255 255 255
-0.005206 0.011778 0.059149 255 255 255 255
-0.055088 -0.062725 -0.003110 255 255 255 255
-0.072326 0.023975 -0.004410 255 255 255 255
-0.069799 -0.026912 -0.000327 255 255 255 255
-0.069824 -0.027344 -0.000316 255 255 255 255
-0.069136 -0.030422 -0.000273 255 255 255 255
-0.068755 -0.031312 -0.000268 255 255 255 255
-0.074471 0.036365 -0.005611 255 255 255 255
-0.067559 -0.033118 -0.000276 255 255 255 255
-0.067584 -0.033551 -0.000265 255 255 255 255
-0.069290 0.087688 0.001988 255 255 255 255
-0.081712 0.077549 -0.006268 255 255 255 255
-0.061162 0.106260 0.000215 255 255 255 255
-0.061589 0.106285 0.000233 255 255 255 255
-0.068445 0.113360 -0.006654 255 255 255 255
-0.081737 0.077112 -0.006257 255 255 255 255
-0.081630 0.071409 -0.006128 255 255 255 255
-0.069495 0.114516 -0.007638 255 255 255 255
-0.069470 0.114952 -0.007650 255 255 255 255
-0.069444 0.115389 -0.007661 255 255 255 255
-0.068420 0.113796 -0.006665 255 255 255 255
-0.069855 0.115852 -0.007655 255 255 255 255
-0.068395 0.114232 -0.006677 255 255 255 255
-0.081788 0.076239 -0.006234 255 255 255 255
-0.061728 -0.049218 -0.003148 255 255 255 255
-0.065641 -0.041212 -0.001169 255 255 255 255
-0.069649 -0.024318 -0.000394 255 255 255 255
-0.071029 0.000128 0.000096 255 255 255 255
-0.070895 0.013936 -0.001233 255 255 255 255
-0.072638 0.006995 -0.003001 255 255 255 255
-0.070854 -0.007760 -0.000729 255 255 255 255
-0.071241 0.026972 -0.002523 255 255 255 255
-0.071881 0.020032 -0.003336 255 255 255 255
-0.072417 0.034052 -0.005642 255 255 255 255
-0.070461 0.040409 -0.002869 255 255 255 255
-0.047853 0.058390 0.027806 255 255 255 255
-0.047569 0.083609 0.019198 255 255 255 255
-0.061490 0.107997 0.000189 255 255 255 255
-0.055707 0.024421 0.019915 255 255 255 255
-0.054950 0.019853 0.018988 255 255 255 255
-0.056051 0.028942 0.020825 255 255 255 255
-0.053601 0.014902 0.021050 255 255 255 255
-0.014841 0.006446 0.043657 255 255 255 255
-0.013623 0.004192 0.045661 255 255 255 255
-0.013236 0.000880 0.047724 255 255 255 255
-0.017593 0.000424 0.042911 255 255 255 255
-0.017161 -0.002518 0.044964 255 255 255 255
-0.010079 0.001768 0.052577 255 255 255 255
-0.010513 0.003915 0.050543 255 255 255 255
-0.013638 -0.001292 0.048793 255 255 255 255
-0.012482 -0.004212 0.050815 255 255 255 255
-0.009616 -0.001390 0.055635 255 255 255 255
-0.018403 -0.016580 0.048347 255 255 255 255
-0.018354 -0.011876 0.046233 255 255 255 255
-0.015620 -0.007673 0.048023 255 255 255 255
-0.020173 -0.004409 0.043131 255 255 255 255
-0.019869 -0.007787 0.044198 255 255 255 255
-0.015911 -0.004335 0.046956 255 255 255 255
-0.021434 -0.002183 0.041130 255 255 255 255
-0.012846 -0.009146 0.053948 255 255 255 255
-0.013761 -0.011011 0.057033 255 255 255 255
-0.009220 -0.005584 0.058720 255 255 255 255
-0.008066 -0.002853 0.061611 255 255 255 255
-0.007746 0.000916 0.058507 255 255 255 255
-0.018434 0.003039 0.040883 255 255 255 255
-0.023390 0.001661 0.039119 255 255 255 255
-0.023289 -0.011894 0.043436 255 255 255 255
-0.026278 -0.014897 0.042629 255 255 255 255
-0.024028 -0.007043 0.041351 255 255 255 255
-0.027827 -0.010388 0.040586 255 255 255 255
-0.025092 -0.003202 0.040305 255 255 255 255
-0.029699 -0.006886 0.039582 255 255 255 255
-0.031763 -0.018277 0.040934 255 255 255 255
-0.034413 -0.021346 0.040115 255 255 255 255
-0.038806 -0.027440 0.039439 255 255 255 255
-0.036907 -0.018729 0.038156 255 255 255 255
-0.040415 -0.022556 0.037390 255 255 255 255
-0.039311 -0.014127 0.036147 255 255 255 255
-0.043373 -0.017261 0.034387 255 255 255 255
-0.032397 -0.013320 0.039844 255 255 255 255
-0.034927 -0.008800 0.036841 255 255 255 255
-0.032228 -0.002701 0.036586 255 255 255 255
-0.026753 -0.000537 0.038310 255 255 255 255
-0.041682 -0.002528 0.031971 255 255 255 255
-0.040053 -0.007597 0.034023 255 255 255 255
-0.036078 -0.005689 0.035815 255 255 255 255
-0.036040 0.000448 0.033668 255 255 255 255
-0.043583 -0.011040 0.033250 255 255 255 255
-0.044839 -0.002894 0.030109 255 255 255 255
-0.045121 0.002243 0.029000 255 255 255 255
-0.030331 0.008046 0.034255 255 255 255 255
-0.026579 0.009439 0.035067 255 255 255 255
-0.033643 0.007801 0.033397 255 255 255 255
-0.038991 0.002866 0.031733 255 255 255 255
-0.037246 0.002824 0.032662 255 255 255 255
-0.049040 0.009901 0.024980 255 255 255 255
-0.045967 0.007795 0.026904 255 255 255 255
-0.041016 0.008047 0.029694 255 255 255 255
-0.036742 0.007492 0.031531 255 255 255 255
-0.042783 0.008104 0.028766 255 255 255 255
-0.021098 0.011929 0.036782 255 255 255 255
-0.017490 0.013666 0.036591 255 255 255 255
-0.007756 0.003727 0.056440 255 255 255 255
-0.007811 0.007269 0.053356 255 255 255 255
-0.013349 0.030891 0.040022 255 255 255 255
-0.012067 0.028128 0.039032 255 255 255 255
-0.005994 0.028044 0.046789 255 255 255 255
-0.018606 0.035762 0.042130 255 255 255 255
-0.013735 0.016195 0.037377 255 255 255 255
-0.012416 0.018840 0.037260 255 255 255 255
-0.011849 0.021918 0.037165 255 255 255 255
-0.011209 0.024600 0.038077 255 255 255 255
-0.030192 0.048580 0.044317 255 255 255 255
-0.027430 0.041125 0.045377 255 255 255 255
-0.062666 0.065502 0.014242 255 255 255 255
-0.065957 0.054502 0.008629 255 255 255 255
-0.051441 0.044504 0.030281 255 255 255 255
-0.055361 0.039713 0.026552 255 255 255 255
-0.056706 0.034633 0.023723 255 255 255 255
-0.066220 0.044151 0.004876 255 255 255 255
-0.066814 0.030558 0.004217 255 255 255 255
-0.067506 0.018634 0.004523 255 255 255 255
-0.050853 0.100657 0.007925 255 255 255 255
-0.050829 0.101076 0.007914 255 255 255 255
-0.052201 0.088552 0.013269 255 255 255 255
-0.048165 0.114570 0.008490 255 255 255 255
-0.046828 0.112585 0.009481 255 255 255 255
-0.060522 0.106019 0.001195 255 255 255 255
-0.049827 0.100402 0.008889 255 255 255 255
-0.039992 0.097658 0.017553 255 255 255 255
-0.040299 0.093214 0.019672 255 255 255 255
-0.038650 0.085367 0.024791 255 255 255 255
-0.037045 0.077313 0.029918 255 255 255 255
-0.010261 -0.006152 0.055773 255 255 255 255
-0.009830 -0.005070 0.055730 255 255 255 255
-0.009904 -0.004780 0.054725 255 255 255 255
-0.010228 -0.007170 0.056797 255 255 255 255
-0.010714 -0.007602 0.055826 255 255 255 255
-0.010452 -0.020514 0.059119 255 255 255 255
-0.011354 -0.009215 0.057892 255 255 255 255
-0.011025 -0.008228 0.056854 255 255 255 255
-0.069699 -0.025183 -0.000371 255 255 255 255
0.009015 -0.109246 -0.005702 255 255 255 255
0.013572 -0.106354 -0.002956 255 255 255 255
0.010840 -0.108150 -0.004802 255 255 255 255
0.009944 -0.108535 -0.004756 255 255 255 255
0.014484 -0.105650 -0.002009 255 255 255 255
0.012222 -0.107034 -0.003885 255 255 255 255
0.006808 -0.109554 -0.005602 255 255 255 255
0.003678 -0.110683 -0.005446 255 255 255 255
0.003241 -0.110657 -0.005428 255 255 255 255
0.008613 -0.108893 -0.004692 255 255 255 255
0.011329 -0.107416 -0.003839 255 255 255 255
0.002805 -0.110631 -0.005410 255 255 255 255
-0.000275 -0.110888 -0.005276 255 255 255 255
-0.000711 -0.110862 -0.005258 255 255 255 255
-0.001147 -0.110836 -0.005241 255 255 255 255
-0.001584 -0.110810 -0.005223 255 255 255 255
0.004139 -0.110272 -0.005474 255 255 255 255
-0.012827 -0.108393 -0.004810 255 255 255 255
-0.014521 -0.107416 -0.004762 255 255 255 255
-0.015274 -0.106607 -0.003749 255 255 255 255
-0.010696 -0.109396 -0.004876 255 255 255 255
-0.019264 -0.103108 -0.001662 255 255 255 255
-0.017274 -0.104853 -0.002705 255 255 255 255
-0.010259 -0.109421 -0.004894 255 255 255 255
-0.006794 -0.110064 -0.005023 255 255 255 255
-0.006358 -0.110090 -0.005041 255 255 255 255
-0.011543 -0.108907 -0.004852 255 255 255 255
-0.012303 -0.108094 -0.003838 255 255 255 255
-0.005922 -0.110115 -0.005058 255 255 255 255
-0.005485 -0.110141 -0.005076 255 255 255 255
-0.010868 -0.007035 0.053817 255 255 255 255
-0.067227 -0.034874 -0.000249 255 255 255 255
-0.062718 -0.047225 -0.002152 255 255 255 255
-0.061108 -0.049501 -0.002166 255 255 255 255
-0.063677 -0.044808 -0.001167 255 255 255 255
-0.057370 -0.056907 -0.003150 255 255 255 255
-0.059699 -0.051133 -0.001185 255 255 255 255
-0.049946 -0.068629 0.000818 255 255 255 255
-0.054458 -0.059055 0.003786 255 255 255 255
-0.043586 -0.072773 0.009659 255 255 255 255
-0.048829 -0.062888 0.012651 255 255 255 255
-0.030821 -0.077102 0.031253 255 255 255 255
-0.029399 -0.080437 0.028267 255 255 255 255
-0.021851 -0.084583 0.037059 255 255 255 255
-0.023645 -0.080842 0.040051 255 255 255 255
-0.016338 -0.085323 0.041852 255 255 255 255
-0.016973 -0.082902 0.045827 255 255 255 255
-0.009559 -0.086781 0.045608 255 255 255 255
-0.009034 -0.084102 0.050529 255 255 255 255
-0.000291 -0.086697 0.047222 255 255 255 255
-0.000337 -0.084304 0.051173 255 255 255 255
-0.000099 -0.076303 0.053980 255 255 255 255
-0.009021 -0.076148 0.054348 255 255 255 255
-0.008586 -0.080202 0.053423 255 255 255 255
-0.000030 -0.081522 0.054098 255 255 255 255
-0.016434 -0.075373 0.050635 255 255 255 255
-0.017279 -0.080070 0.048777 255 255 255 255
-0.023250 -0.072589 0.045849 255 255 255 255
-0.024273 -0.077603 0.043005 255 255 255 255
-0.030887 -0.069400 0.039085 255 255 255 255
-0.031623 -0.072780 0.035190 255 255 255 255
-0.035927 -0.062909 0.034138 255 255 255 255
-0.038027 -0.065606 0.029283 255 255 255 255
-0.007551 -0.090281 0.038598 255 255 255 255
-0.000432 -0.090063 0.040298 255 255 255 255
-0.015131 -0.088823 0.035877 255 255 255 255
-0.020582 -0.087767 0.032075 255 255 255 255
-0.026557 -0.085815 0.024270 255 255 255 255
-0.036466 -0.076417 0.019458 255 255 255 255
-0.031119 -0.084186 0.016413 255 255 255 255
-0.040275 -0.076511 0.010609 255 255 255 255
-0.045963 -0.074490 0.000788 255 255 255 255
-0.054101 -0.063868 -0.002123 255 255 255 255
-0.062096 -0.047511 -0.001170 255 255 255 255
-0.064249 -0.043293 -0.000177 255 255 255 255
-0.066539 -0.037951 -0.000206 255 255 255 255
-0.015047 -0.070933 0.050474 255 255 255 255
-0.008089 -0.071639 0.053203 255 255 255 255
-0.022582 -0.067658 0.045706 255 255 255 255
-0.029545 -0.064296 0.040912 255 255 255 255
-0.033609 -0.060116 0.037981 255 255 255 255
-0.038794 -0.048467 0.037926 255 255 255 255
-0.037353 -0.054642 0.037009 255 255 255 255
-0.036061 -0.036374 0.040534 255 255 255 255
-0.037895 -0.042463 0.038750 255 255 255 255
-0.044310 -0.029674 0.035716 255 255 255 255
-0.046512 -0.037937 0.032997 255 255 255 255
-0.042621 -0.041180 0.035914 255 255 255 255
-0.041049 -0.033470 0.037671 255 255 255 255
-0.047311 -0.024405 0.032715 255 255 255 255
-0.051012 -0.033962 0.029088 255 255 255 255
-0.007911 -0.091931 0.034647 255 255 255 255
-0.000473 -0.092765 0.034356 255 255 255 255
-0.013463 -0.092404 0.029884 255 255 255 255
-0.019085 -0.091634 0.025095 255 255 255 255
-0.019039 -0.092983 0.022121 255 255 255 255
-0.034366 -0.083609 0.010528 255 255 255 255
-0.035208 -0.083980 0.007568 255 255 255 255
-0.040392 -0.080341 0.002694 255 255 255 255
-0.050721 -0.068627 -0.001152 255 255 255 255
-0.052139 -0.066135 -0.000150 255 255 255 255
-0.061476 -0.047795 -0.000188 255 255 255 255
-0.020556 -0.099081 0.005307 255 255 255 255
-0.016020 -0.098497 0.013113 255 255 255 255
-0.012297 -0.098354 0.017960 255 255 255 255
-0.010708 -0.097154 0.021870 255 255 255 255
-0.006967 -0.097052 0.022713 255 255 255 255
-0.000498 -0.097842 0.022461 255 255 255 255
-0.005161 -0.100579 0.014711 255 255 255 255
0.000203 -0.101313 0.014504 255 255 255 255
-0.006733 -0.102209 0.010810 255 255 255 255
-0.000114 -0.103349 0.009559 255 255 255 255
-0.008941 -0.104895 0.004957 255 255 255 255
0.000050 -0.105097 0.005588 255 255 255 255
-0.040414 -0.055748 0.033158 255 255 255 255
-0.043865 -0.056887 0.027321 255 255 255 255
-0.046445 -0.048065 0.030227 255 255 255 255
-0.051390 -0.044920 0.024353 255 255 255 255
-0.047927 -0.056131 0.022467 255 255 255 255
-0.042631 -0.049065 0.034096 255 255 255 255
-0.053671 -0.051703 0.014595 255 255 255 255
-0.056201 -0.040646 0.019448 255 255 255 255
-0.055119 -0.028699 0.025132 255 255 255 255
-0.060649 -0.035429 0.014507 255 255 255 255
-0.058351 -0.047139 0.008677 255 255 255 255
-0.058722 -0.023886 0.020164 255 255 255 255
-0.061780 -0.019258 0.016180 255 255 255 255
-0.063973 -0.030970 0.009536 255 255 255 255
-0.063104 -0.041620 0.004742 255 255 255 255
-0.040476 -0.068423 0.022443 255 255 255 255
-0.066976 -0.034300 0.000728 255 255 255 255
-0.064074 -0.014990 0.012171 255 255 255 255
-0.066397 -0.024881 0.006492 255 255 255 255
-0.067399 -0.009386 0.007174 255 255 255 255
-0.069471 -0.017707 0.000446 255 255 255 255
-0.069135 -0.026815 0.000644 255 255 255 255
-0.069391 -0.023771 0.000584 255 255 255 255
-0.000211 -0.071826 0.053880 255 255 255 255
-0.021321 -0.029858 0.049779 255 255 255 255
-0.017228 -0.027912 0.051565 255 255 255 255
-0.012232 -0.025750 0.055311 255 255 255 255
-0.009451 -0.026945 0.058226 255 255 255 255
-0.007401 -0.026035 0.060122 255 255 255 255
0.000243 -0.110147 -0.004314 255 255 255 255
0.000474 0.041321 0.052217 255 255 255 255
0.000280 -0.106527 0.002609 255 255 255 255
0.000111 -0.062783 0.049651 255 255 255 255
-0.000127 -0.068641 0.051800 255 255 255 255
0.000831 -0.058581 0.051526 255 255 255 255
-0.001235 0.002811 0.071206 255 255 255 255
0.000020 -0.059657 0.051585 255 255 255 255
0.000244 -0.051296 0.060391 255 255 255 255
0.000793 -0.045370 0.057226 255 255 255 255
0.000277 0.078519 0.039345 255 255 255 255
0.000452 -0.046774 0.059276 255 255 255 255
-0.001180 -0.028851 0.062931 255 255 255 255
-0.000602 -0.001916 0.074293 255 255 255 255
0.000815 -0.045004 0.057217 255 255 255 255
0.000239 -0.054909 0.057472 255 255 255 255
0.001160 -0.045392 0.057212 255 255 255 255
0.001181 -0.045025 0.057202 255 255 255 255
0.002347 -0.033908 0.059898 255 255 255 255
0.000129 -0.030173 0.061906 255 255 255 255
-0.000112 0.020217 0.056738 255 255 255 255
-0.000781 0.017734 0.059827 255 255 255 255
0.002956 0.104298 0.027621 255 255 255 255
0.000092 0.088293 0.034120 255 255 255 255
-0.000060 0.007216 0.069052 255 255 255 255
0.000533 0.061188 0.046746 255 255 255 255
-0.000028 -0.006295 0.076373 255 255 255 255
-0.003469 -0.023444 0.066905 255 255 255 255
0.008379 0.110809 0.025240 255 255 255 255
0.000191 -0.044031 0.058222 255 255 255 255
-0.027760 0.137282 0.014118 255 255 255 255
0.001548 -0.045047 0.057188 255 255 255 255
-0.002790 -0.020388 0.073814 255 255 255 255
0.000214 -0.033976 0.060990 255 255 255 255
0.000340 -0.031801 0.060934 255 255 255 255
0.000534 0.048745 0.052042 255 255 255 255
0.000171 -0.034701 0.061009 255 255 255 255
0.001075 0.028318 0.050493 255 255 255 255
0.000327 -0.039251 0.062109 255 255 255 255
0.001932 -0.110580 -0.005375 255 255 255 255
0.000408 -0.042185 0.060172 255 255 255 255
0.001914 -0.045068 0.057173 255 255 255 255
-0.001496 0.011764 0.065002 255 255 255 255
0.002281 -0.045090 0.057158 255 255 255 255
0.001182 0.069468 0.043523 255 255 255 255
-0.005249 -0.024272 0.062994 255 255 255 255
-0.005567 -0.023530 0.062990 255 255 255 255
0.000616 0.025722 0.051574 255 255 255 255
0.000342 0.097691 0.029886 255 255 255 255
0.000791 0.030974 0.049442 255 255 255 255
-0.000933 -0.026755 0.064874 255 255 255 255
0.000660 0.023109 0.054636 255 255 255 255
-0.000745 0.015956 0.061869 255 255 255 255
-0.000144 -0.010575 0.078480 255 255 255 255
-0.001511 -0.009221 0.077505 255 255 255 255
0.007935 0.110038 0.025277 255 255 255 255
0.007912 0.109640 0.025287 255 255 255 255
-0.002738 -0.021858 0.070842 255 255 255 255
0.000677 0.034319 0.050369 255 255 255 255
-0.002681 -0.023348 0.067871 255 255 255 255
-0.004028 -0.024415 0.064949 255 255 255 255
0.012530 -0.007499 0.054854 255 255 255 255
0.065389 -0.041040 0.002372 255 255 255 255
0.063253 -0.053066 -0.003266 255 255 255 255
0.062420 -0.054498 -0.004199 255 255 255 255
0.063598 -0.050572 -0.001336 255 255 255 255
0.057544 -0.061747 -0.006830 255 255 255 255
0.061639 -0.052849 -0.000200 255 255 255 255
0.050034 -0.068442 0.000647 255 255 255 255
0.054382 -0.059111 0.005254 255 255 255 255
-0.006377 -0.017762 0.070899 255 255 255 255
-0.005706 -0.020321 0.067927 255 255 255 255
0.043227 -0.071865 0.010021 255 255 255 255
0.047679 -0.063099 0.012634 255 255 255 255
-0.015745 0.020565 0.034356 255 255 255 255
-0.010228 -0.021393 0.058129 255 255 255 255
-0.005839 0.002880 0.062386 255 255 255 255
-0.014859 0.020522 0.035321 255 255 255 255
0.029216 -0.077438 0.031759 255 255 255 255
0.027490 -0.082028 0.027934 255 255 255 255
0.022090 -0.083650 0.035205 255 255 255 255
0.022593 -0.080565 0.039116 255 255 255 255
-0.012586 -0.020783 0.056211 255 255 255 255
0.014963 -0.085322 0.041548 255 255 255 255
0.015516 -0.082610 0.045466 255 255 255 255
0.007659 -0.086720 0.045890 255 255 255 255
0.008314 -0.083620 0.049795 255 255 255 255
-0.006273 0.010266 0.056225 255 255 255 255
-0.007910 0.019049 0.044075 255 255 255 255
0.008433 -0.076352 0.052624 255 255 255 255
0.008939 -0.080491 0.052699 255 255 255 255
-0.005779 0.006754 0.060291 255 255 255 255
-0.016374 -0.016129 0.056260 255 255 255 255
-0.014838 -0.019671 0.055278 255 255 255 255
-0.006931 -0.010569 0.071755 255 255 255 255
-0.006859 -0.007856 0.070688 255 255 255 255
0.014777 -0.076178 0.050353 255 255 255 255
-0.008942 -0.013377 0.070903 255 255 255 255
-0.006708 -0.017390 0.070904 255 255 255 255
0.016084 -0.079474 0.048373 255 255 255 255
-0.017352 0.019876 0.034439 255 255 255 255
-0.025401 0.023086 0.031696 255 255 255 255
-0.007342 -0.011599 0.071796 255 255 255 255
-0.006027 -0.016003 0.073846 255 255 255 255
-0.020942 0.020864 0.033564 255 255 255 255
-0.016526 0.020612 0.034387 255 255 255 255
-0.011550 -0.011753 0.064967 255 255 255 255
-0.006790 0.017917 0.049061 255 255 255 255
0.022141 -0.073469 0.044977 255 255 255 255
0.023087 -0.077806 0.042035 255 255 255 255
0.030217 -0.069380 0.038538 255 255 255 255
0.030536 -0.073167 0.034608 255 255 255 255
-0.014675 -0.013201 0.060126 255 255 255 255
0.035399 -0.063649 0.034183 255 255 255 255
0.036590 -0.067042 0.030208 255 255 255 255
0.007722 -0.089769 0.039951 255 255 255 255
-0.018501 0.020336 0.034476 255 255 255 255
-0.019790 0.020402 0.033527 255 255 255 255
-0.006523 -0.000836 0.065505 255 255 255 255
0.013940 -0.089052 0.035671 255 255 255 255
0.019944 -0.087777 0.030384 255 255 255 255
0.025322 -0.086670 0.024128 255 255 255 255
0.036210 -0.076634 0.019435 255 255 255 255
-0.022486 0.021348 0.033617 255 255 255 255
-0.006224 -0.022406 0.062991 255 255 255 255
-0.010652 -0.011948 0.066937 255 255 255 255
-0.009762 -0.012138 0.068906 255 255 255 255
-0.006672 -0.022518 0.062011 255 255 255 255
0.031451 -0.083315 0.016786 255 255 255 255
0.039152 -0.079259 0.008361 255 255 255 255
-0.012349 0.020003 0.037230 255 255 255 255
0.046349 -0.072936 0.000905 255 255 255 255
-0.006685 0.015350 0.052120 255 255 255 255
-0.006209 0.012808 0.055162 255 255 255 255
0.053796 -0.067849 -0.007533 255 255 255 255
0.058092 -0.061546 -0.007859 255 255 255 255
-0.006237 -0.020557 0.065952 255 255 255 255
0.059432 -0.059242 -0.006967 255 255 255 255
0.065364 -0.041464 0.002383 255 255 255 255
0.013934 -0.071138 0.049269 255 255 255 255
0.006747 -0.073263 0.052622 255 255 255 255
0.021559 -0.070385 0.044929 255 255 255 255
-0.006857 -0.004855 0.068616 255 255 255 255
0.028455 -0.065294 0.040518 255 255 255 255
0.032642 -0.060991 0.038241 255 255 255 255
0.038380 -0.048919 0.037721 255 255 255 255
-0.008259 -0.021971 0.060063 255 255 255 255
0.036106 -0.055593 0.036970 255 255 255 255
0.036999 -0.036711 0.040497 255 255 255 255
0.037857 -0.042710 0.039600 255 255 255 255
0.044522 -0.029890 0.037021 255 255 255 255
0.047028 -0.038841 0.033121 255 255 255 255
0.042748 -0.041595 0.036367 255 255 255 255
-0.004180 -0.016908 0.075793 255 255 255 255
-0.006795 -0.015730 0.072871 255 255 255 255
0.040674 -0.034007 0.039280 255 255 255 255
0.047706 -0.025809 0.033790 255 255 255 255
0.050681 -0.034410 0.029862 255 255 255 255
0.005833 -0.092743 0.034092 255 255 255 255
-0.028552 0.034489 0.040572 255 255 255 255
-0.029385 0.031880 0.038666 255 255 255 255
0.012540 -0.092111 0.030794 255 255 255 255
0.017762 -0.091575 0.025558 255 255 255 255
0.024014 -0.089807 0.020251 255 255 255 255
0.029251 -0.088746 0.011998 255 255 255 255
0.036540 -0.084395 0.004585 255 255 255 255
0.038356 -0.082377 0.004462 255 255 255 255
-0.022035 0.038185 0.044219 255 255 255 255
-0.004379 0.037233 0.050513 255 255 255 255
-0.009775 0.037635 0.048726 255 255 255 255
0.050886 -0.071382 -0.006328 255 255 255 255
-0.029448 0.029194 0.036728 255 255 255 255
-0.031196 0.028528 0.035816 255 255 255 255
-0.028847 0.030313 0.037678 255 255 255 255
-0.031023 0.028897 0.036801 255 255 255 255
-0.030463 0.029241 0.037771 255 255 255 255
0.057121 -0.063237 -0.007779 255 255 255 255
-0.029059 0.029171 0.036713 255 255 255 255
0.058972 -0.059651 -0.006939 255 255 255 255
-0.029836 0.029217 0.036744 255 255 255 255
0.014779 -0.100856 0.008880 255 255 255 255
-0.028633 0.037158 0.041515 255 255 255 255
0.014884 -0.099168 0.012840 255 255 255 255
0.012499 -0.097849 0.017915 255 255 255 255
-0.028892 0.029537 0.037698 255 255 255 255
-0.030956 0.028525 0.034805 255 255 255 255
0.009741 -0.096817 0.022010 255 255 255 255
-0.030810 0.027765 0.030812 255 255 255 255
0.005613 -0.097795 0.022205 255 255 255 255
0.000150 0.036924 0.051332 255 255 255 255
-0.020912 0.048511 0.047936 255 255 255 255
-0.053041 0.048361 0.027255 255 255 255 255
0.004787 -0.101167 0.014309 255 255 255 255
-0.056426 0.042680 0.024525 255 255 255 255
0.007114 -0.102607 0.010241 255 255 255 255
-0.047539 0.005130 0.028032 255 255 255 255
-0.050639 0.006813 0.026120 255 255 255 255
-0.018281 0.041948 0.047979 255 255 255 255
0.008646 -0.104001 0.006205 255 255 255 255
0.040198 -0.056302 0.032811 255 255 255 255
0.042771 -0.057310 0.028723 255 255 255 255
0.047101 -0.048436 0.030338 255 255 255 255
0.051267 -0.045622 0.025093 255 255 255 255
-0.026072 0.068917 0.037665 255 255 255 255
-0.048737 0.125708 0.004250 255 255 255 255
-0.024529 0.061527 0.040776 255 255 255 255
-0.039483 0.054050 0.035567 255 255 255 255
0.047721 -0.055652 0.022471 255 255 255 255
-0.047269 0.112193 0.009509 255 255 255 255
0.042432 -0.049357 0.034558 255 255 255 255
0.053360 -0.053302 0.015173 255 255 255 255
0.056350 -0.040963 0.020768 255 255 255 255
0.054151 -0.028818 0.025582 255 255 255 255
0.059693 -0.036374 0.014514 255 255 255 255
-0.046807 0.052507 0.030903 255 255 255 255
0.059144 -0.047936 0.009801 255 255 255 255
-0.056395 0.012579 0.020219 255 255 255 255
-0.006818 0.054655 0.049207 255 255 255 255
-0.057713 0.018351 0.018137 255 255 255 255
0.058166 -0.023639 0.020288 255 255 255 255
-0.014162 0.054519 0.047515 255 255 255 255
0.060444 -0.019732 0.016098 255 255 255 255
0.063376 -0.030524 0.010220 255 255 255 255
0.063724 -0.041743 0.005461 255 255 255 255
0.040201 -0.067979 0.022070 255 255 255 255
-0.012220 0.034903 0.044887 255 255 255 255
0.065931 -0.034842 0.004207 255 255 255 255
-0.037623 0.005958 0.031604 255 255 255 255
-0.040630 0.004890 0.030753 255 255 255 255
0.063223 -0.014930 0.011865 255 255 255 255
-0.054491 0.010094 0.022200 255 255 255 255
-0.029880 0.087374 0.028383 255 255 255 255
-0.008630 0.027874 0.042899 255 255 255 255
-0.009905 0.030605 0.043889 255 255 255 255
-0.031362 0.095986 0.023239 255 255 255 255
0.065219 -0.026409 0.007044 255 255 255 255
0.066633 -0.009288 0.006586 255 255 255 255
0.067894 -0.017714 0.002725 255 255 255 255
-0.033415 0.100954 0.021207 255 255 255 255
0.067116 -0.028991 0.004021 255 255 255 255
0.067747 -0.020249 0.002790 255 255 255 255
-0.048712 0.126130 0.004239 255 255 255 255
-0.021211 0.009986 0.036832 255 255 255 255
0.022381 -0.029129 0.049941 255 255 255 255
0.017597 -0.028031 0.053118 255 255 255 255
-0.058067 0.036417 0.020735 255 255 255 255
-0.058061 0.029897 0.018884 255 255 255 255
-0.030354 0.007654 0.034265 255 255 255 255
-0.058027 0.023718 0.017024 255 255 255 255
0.013327 -0.025864 0.056249 255 255 255 255
-0.052984 0.008064 0.024186 255 255 255 255
0.010503 -0.025269 0.059357 255 255 255 255
0.002759 -0.029445 0.062780 255 255 255 255
-0.032021 0.054362 0.040254 255 255 255 255
-0.033666 0.007407 0.033407 255 255 255 255
-0.008133 0.024790 0.041949 255 255 255 255
-0.016694 0.012092 0.037596 255 255 255 255
-0.013292 0.015415 0.038378 255 255 255 255
-0.039323 0.102126 0.017421 255 255 255 255
-0.011109 0.018016 0.039227 255 255 255 255
-0.008782 0.021756 0.041045 255 255 255 255
-0.025275 0.007106 0.037069 255 255 255 255
-0.027910 0.078399 0.034517 255 255 255 255
-0.048687 0.126553 0.004228 255 255 255 255
-0.044515 0.005807 0.028892 255 255 255 255
0.000314 0.054983 0.048902 255 255 255 255
-0.009751 0.019880 0.040128 255 255 255 255
-0.015586 0.038439 0.046947 255 255 255 255
-0.023232 0.054563 0.044889 255 255 255 255
0.000325 -0.057094 0.054516 255 255 255 255
-0.026201 -0.040110 0.046216 255 255 255 255
-0.026929 -0.041589 0.044279 255 255 255 255
-0.028597 -0.048216 0.043502 255 255 255 255
-0.020477 -0.034294 0.052850 255 255 255 255
-0.024210 -0.038538 0.049100 255 255 255 255
-0.018420 -0.055889 0.049263 255 255 255 255
-0.028036 -0.045173 0.043408 255 255 255 255
-0.012475 -0.057183 0.053049 255 255 255 255
-0.028103 -0.046323 0.043437 255 255 255 255
-0.006481 -0.058045 0.053821 255 255 255 255
0.000319 -0.032163 0.060943 255 255 255 255
-0.010016 -0.031884 0.059366 255 255 255 255
-0.004534 -0.033137 0.060167 255 255 255 255
-0.015588 -0.032588 0.055610 255 255 255 255
-0.026338 -0.051210 0.044478 255 255 255 255
-0.023177 -0.053634 0.046405 255 255 255 255
0.007611 -0.019648 0.070359 255 255 255 255
0.007457 -0.020965 0.068394 255 255 255 255
0.015237 0.020312 0.035071 255 255 255 255
0.012167 -0.021719 0.059205 255 255 255 255
0.007588 0.003229 0.062819 255 255 255 255
0.013684 0.020404 0.035134 255 255 255 255
0.012814 -0.022388 0.057191 255 255 255 255
0.007463 0.010995 0.057638 255 255 255 255
0.008582 0.019615 0.045377 255 255 255 255
0.007346 0.006753 0.060745 255 255 255 255
0.017667 -0.014600 0.056807 255 255 255 255
0.015070 -0.021182 0.056068 255 255 255 255
0.008929 -0.010349 0.072090 255 255 255 255
0.008699 -0.007624 0.071035 255 255 255 255
0.010104 -0.013686 0.071117 255 255 255 255
0.008523 -0.017337 0.072269 255 255 255 255
0.017156 0.019809 0.035003 255 255 255 255
0.021971 0.022258 0.032743 255 255 255 255
0.009197 -0.011767 0.072111 255 255 255 255
0.007677 -0.015872 0.075274 255 255 255 255
0.021103 0.020743 0.033815 255 255 255 255
0.016402 0.020243 0.035024 255 255 255 255
0.011822 -0.011593 0.064990 255 255 255 255
0.007953 0.018935 0.049423 255 255 255 255
0.015281 -0.012574 0.060864 255 255 255 255
0.018332 0.020125 0.033945 255 255 255 255
0.019890 0.020033 0.033883 255 255 255 255
0.007873 -0.000184 0.065890 255 255 255 255
0.022706 0.021431 0.033732 255 255 255 255
0.007904 -0.022965 0.064417 255 255 255 255
0.010818 -0.011934 0.068043 255 255 255 255
0.010814 -0.012536 0.069059 255 255 255 255
0.008916 -0.022940 0.062372 255 255 255 255
0.011780 0.020138 0.037222 255 255 255 255
0.007909 0.015997 0.052497 255 255 255 255
0.007867 0.013111 0.055569 255 255 255 255
0.007302 -0.022295 0.066429 255 255 255 255
0.008486 -0.003905 0.068955 255 255 255 255
0.010000 -0.022416 0.061313 255 255 255 255
0.009404 -0.014233 0.072160 255 255 255 255
0.030058 0.036293 0.041089 255 255 255 255
0.029857 0.032162 0.039191 255 255 255 255
0.022931 0.038430 0.045341 255 255 255 255
0.005386 0.037360 0.051103 255 255 255 255
0.010070 0.036046 0.048936 255 255 255 255
0.029744 0.029886 0.038248 255 255 255 255
0.030127 0.029502 0.037240 255 255 255 255
0.029766 0.030270 0.038238 255 255 255 255
0.029742 0.029524 0.037255 255 255 255 255
0.029360 0.029909 0.038263 255 255 255 255
0.028976 0.029931 0.038279 255 255 255 255
0.029357 0.029547 0.037271 255 255 255 255
0.028968 0.037791 0.043102 255 255 255 255
0.029382 0.030293 0.038253 255 255 255 255
0.030148 0.029159 0.035244 255 255 255 255
0.030167 0.028442 0.032257 255 255 255 255
0.022437 0.049098 0.049118 255 255 255 255
0.052361 0.048944 0.027850 255 255 255 255
0.055928 0.043058 0.023834 255 255 255 255
0.047573 0.006078 0.028047 255 255 255 255
0.050537 0.006623 0.025908 255 255 255 255
0.018985 0.041083 0.049448 255 255 255 255
0.026218 0.068774 0.039491 255 255 255 255
0.035607 0.102804 0.015281 255 255 255 255
0.025411 0.061572 0.042696 255 255 255 255
0.040098 0.054824 0.036234 255 255 255 255
0.034770 0.102445 0.015324 255 255 255 255
0.048044 0.052880 0.030942 255 255 255 255
0.055724 0.012603 0.020547 255 255 255 255
0.007117 0.055234 0.049614 255 255 255 255
0.057565 0.018550 0.017328 255 255 255 255
0.015301 0.055221 0.048272 255 255 255 255
0.013636 0.034444 0.045822 255 255 255 255
0.035971 0.006918 0.032516 255 255 255 255
0.041491 0.006553 0.031293 255 255 255 255
0.054691 0.010263 0.021646 255 255 255 255
0.029292 0.087303 0.028920 255 255 255 255
0.009366 0.027941 0.043148 255 255 255 255
0.010715 0.030887 0.044024 255 255 255 255
0.030552 0.094345 0.022697 255 255 255 255
0.031801 0.100963 0.017485 255 255 255 255
0.035177 0.102421 0.015308 255 255 255 255
0.021281 0.010268 0.037055 255 255 255 255
0.058141 0.036623 0.021889 255 255 255 255
0.057653 0.030306 0.019053 255 255 255 255
0.030137 0.008084 0.033733 255 255 255 255
0.057800 0.024230 0.018187 255 255 255 255
0.053202 0.008397 0.023754 255 255 255 255
0.033038 0.055137 0.041527 255 255 255 255
0.033687 0.008656 0.033572 255 255 255 255
0.008793 0.025314 0.042232 255 255 255 255
0.015576 0.011798 0.038259 255 255 255 255
0.012318 0.015104 0.039319 255 255 255 255
0.033590 0.103518 0.016349 255 255 255 255
0.010972 0.017896 0.040311 255 255 255 255
0.008958 0.022245 0.041295 255 255 255 255
0.024286 0.008503 0.035970 255 255 255 255
0.028337 0.078272 0.034176 255 255 255 255
0.044270 0.005956 0.030190 255 255 255 255
0.009970 0.019885 0.041308 255 255 255 255
0.016150 0.037982 0.047636 255 255 255 255
0.023161 0.055328 0.045939 255 255 255 255
0.025184 -0.040123 0.046075 255 255 255 255
0.026217 -0.043012 0.043096 255 255 255 255
0.027422 -0.049019 0.042185 255 255 255 255
0.020495 -0.035630 0.053174 255 255 255 255
0.023730 -0.038377 0.049099 255 255 255 255
0.017816 -0.056141 0.047757 255 255 255 255
0.027182 -0.046128 0.043129 255 255 255 255
0.011854 -0.056005 0.052007 255 255 255 255
0.028319 -0.046772 0.042095 255 255 255 255
0.006654 -0.056725 0.054243 255 255 255 255
0.009633 -0.033974 0.059596 255 255 255 255
0.004643 -0.032783 0.060777 255 255 255 255
0.014756 -0.033147 0.057361 255 255 255 255
0.025721 -0.051186 0.044309 255 255 255 255
0.022886 -0.053851 0.045490 255 255 255 255
0.032033 0.023283 0.024290 255 255 255 255
-0.030631 0.023363 0.022898 255 255 255 255
0.029698 0.021407 0.035444 255 255 255 255
0.027807 0.022297 0.035502 255 255 255 255
0.027055 0.022730 0.035523 255 255 255 255
0.025506 0.022822 0.035586 255 255 255 255
0.029311 0.021430 0.035459 255 255 255 255
0.027442 0.022707 0.035507 255 255 255 255
0.025951 0.023955 0.036542 255 255 255 255
0.025565 0.023977 0.036557 255 255 255 255
0.030063 0.020996 0.035438 255 255 255 255
0.027077 0.023118 0.035513 255 255 255 255
0.026780 0.024691 0.035489 255 255 255 255
0.026018 0.025114 0.036512 255 255 255 255
0.028171 0.021886 0.035496 255 255 255 255
0.026803 0.025079 0.035479 255 255 255 255
0.026825 0.025466 0.035469 255 255 255 255
0.026460 0.025877 0.035475 255 255 255 255
0.030450 0.020973 0.035422 255 255 255 255
0.026758 0.024303 0.035499 255 255 255 255
0.026438 0.025489 0.035485 255 255 255 255
0.026960 0.027792 0.035409 255 255 255 255
0.030837 0.020951 0.035407 255 255 255 255
0.028173 0.028865 0.036335 255 255 255 255
0.028167 0.028498 0.035342 255 255 255 255
0.027780 0.028521 0.035358 255 255 255 255
0.031224 0.020928 0.035391 255 255 255 255
0.030535 0.029501 0.036221 255 255 255 255
