-0.035513 0.010164 0.004380 45 44 49 255
-0.034739 0.011113 0.003856 48 44 43 255
-0.034738 0.010600 0.003917 49 44 41 255
0.094302 0.002139 0.021768 149 118 97 255
0.099734 0.019383 0.015792 72 44 30 255
0.089617 -0.009504 0.024872 162 131 110 255
0.089622 -0.017711 0.025817 122 99 83 255
-0.034286 0.002017 0.005602 37 31 31 255
-0.034512 0.005527 0.004847 35 26 29 255
-0.035787 0.008699 0.004933 41 36 42 255
-0.035788 0.009214 0.004871 43 41 46 255
0.089622 -0.017279 0.025767 120 97 81 255
-0.004699 -0.087617 0.002048 53 38 41 255
-0.033138 0.002853 0.004703 46 32 29 255
0.133861 0.020892 -0.002946 205 121 97 255
0.120899 0.029987 0.003023 57 41 41 255
0.089622 -0.016414 0.025677 121 98 80 255
0.089623 -0.018141 0.025876 116 95 78 255
0.089622 -0.016846 0.025727 116 93 75 255
0.100756 0.024602 0.014032 57 30 23 255
0.093629 0.000074 0.022411 147 116 96 255
0.095947 0.006301 0.020451 110 78 65 255
0.092328 0.007043 0.021692 192 158 133 255
0.091088 -0.006616 0.024076 162 130 109 255
0.090024 -0.021168 0.026197 81 57 47 255
0.091988 -0.091964 0.021257 137 114 98 255
-0.003031 -0.086819 0.002919 42 34 32 255
-0.033404 -0.030674 0.016177 101 87 78 255
-0.033411 0.000375 0.005369 58 40 38 255
-0.033680 -0.029517 0.016430 108 94 81 255
-0.031579 -0.033674 0.015318 111 95 82 255
-0.003154 -0.088186 0.002728 38 30 28 255
0.007698 -0.104897 0.009343 59 39 30 255
0.093400 0.007381 0.021221 195 161 134 255
0.092157 -0.001542 0.023058 178 146 121 255
0.092156 -0.001110 0.023009 177 145 120 255
0.008645 -0.105861 0.010112 64 42 31 255
0.008426 -0.112011 0.010474 47 32 29 255
0.088543 -0.009359 0.025292 172 138 111 255
0.085999 -0.010781 0.026349 173 138 110 255
0.088134 0.007017 0.023421 204 167 141 255
0.091755 0.003237 0.022528 191 159 138 255
0.063313 0.030658 0.028876 129 90 73 255
0.067354 0.032626 0.027646 137 101 75 255
0.067136 0.024313 0.028268 168 124 95 255
0.062296 0.023211 0.029442 151 104 86 255
0.019719 0.088001 0.028817 206 166 156 255
0.009393 0.088209 0.030214 228 188 180 255
0.010087 0.097134 0.027682 188 153 147 255
0.020491 0.095896 0.026042 182 144 133 255
-0.033139 0.003370 0.004642 42 31 29 255
-0.033019 0.010150 0.004212 38 27 25 255
-0.033018 0.009635 0.004273 44 30 29 255
-0.032912 0.000372 0.005335 106 88 86 255
0.021506 0.109796 0.023277 24 17 24 255
0.010678 0.112339 0.024445 32 27 31 255
0.007977 0.119648 0.025227 19 17 20 255
-0.031578 -0.034170 0.015379 106 90 77 255
-0.032912 -0.000143 0.005397 99 81 79 255
-0.033511 0.000890 0.005324 58 40 38 255
-0.033513 0.001404 0.005252 58 40 38 255
0.021206 0.109798 0.023297 24 17 24 255
0.054298 0.003854 0.034757 216 175 145 255
0.057271 -0.002758 0.034954 212 167 138 255
0.052929 -0.003278 0.036032 221 174 144 255
0.049956 0.002495 0.035924 208 163 130 255
0.090524 -0.022900 0.026362 52 42 40 255
0.090524 -0.022468 0.026313 56 41 38 255
-0.038889 0.015905 0.007198 44 42 43 255
-0.037291 0.014112 0.005847 26 30 31 255
-0.036064 0.012878 0.004829 40 35 39 255
-0.039440 0.016539 0.007883 43 41 42 255
-0.034512 0.006041 0.004796 38 29 32 255
-0.033512 0.001918 0.005201 51 36 33 255
-0.034011 0.003977 0.004998 26 22 23 255
-0.034738 0.009568 0.004041 42 40 45 255
0.016251 0.132064 0.023227 35 28 35 255
0.017049 0.132862 0.023085 38 28 36 255
0.011056 0.011571 0.042207 201 150 119 255
-0.035015 0.011702 0.004172 43 39 40 255
-0.034738 0.010082 0.003979 39 38 43 255
-0.036615 0.013531 0.005513 39 34 38 255
-0.034240 0.010596 0.003884 38 29 30 255
-0.035566 0.012361 0.004846 38 33 37 255
-0.034240 0.010078 0.003945 38 32 34 255
-0.032912 0.000886 0.005283 104 86 84 255
-0.032688 -0.000047 0.005730 144 116 112 255
-0.033513 0.002432 0.005139 45 32 26 255
-0.032914 0.001399 0.005212 97 79 77 255
-0.034513 0.006555 0.004734 34 28 30 255
-0.035012 0.008615 0.004532 43 38 44 255
-0.032913 0.001913 0.005160 86 71 68 255
-0.034011 0.004495 0.004937 24 18 20 255
-0.034786 0.005097 0.005276 38 32 34 255
-0.034012 0.005009 0.004875 35 29 31 255
0.011604 0.014103 0.041161 191 138 106 255
0.015824 0.010675 0.040190 203 149 113 255
0.014702 0.007853 0.041672 206 152 124 255
0.007281 0.058223 0.039237 236 193 176 255
0.008151 0.066910 0.036367 224 178 163 255
0.017880 0.067767 0.034887 230 189 169 255
0.014216 0.059031 0.037947 234 193 173 255
0.020415 0.008294 0.040152 210 155 125 255
0.019844 0.006051 0.040813 208 157 130 255
0.011481 0.105426 0.025187 53 43 42 255
0.020738 0.103509 0.024422 49 37 37 255
0.033304 0.151170 0.016973 73 67 71 255
-0.032914 0.002431 0.005099 80 67 61 255
-0.033513 0.003978 0.004965 32 21 19 255
-0.034012 0.005523 0.004814 28 19 22 255
-0.033014 0.002945 0.005044 83 69 66 255
0.039624 0.136102 0.018645 45 38 45 255
0.018108 0.160187 0.016598 90 84 86 255
-0.037841 0.014757 0.006531 26 30 33 255
-0.038115 0.015331 0.006848 32 30 33 255
-0.036791 0.014108 0.005813 36 32 33 255
-0.035842 0.012946 0.005163 35 30 34 255
0.017711 0.160600 0.016576 91 85 87 255
0.128341 0.025208 -0.000543 203 164 147 255
0.100409 0.020216 0.015287 64 36 24 255
0.122921 0.028913 0.001927 48 34 31 255
0.125242 0.028308 0.000751 107 89 85 255
0.007921 -0.104583 0.009651 62 39 31 255
0.008922 -0.107771 0.009956 65 41 29 255
-0.034239 0.009565 0.004007 39 33 35 255
-0.034239 0.009047 0.004068 41 32 35 255
-0.034515 0.011184 0.004200 39 33 33 255
-0.034239 0.008533 0.004120 39 30 33 255
-0.034790 0.011773 0.004506 38 32 32 255
-0.036116 0.013528 0.005479 32 27 31 255
-0.035068 0.012361 0.004813 35 29 29 255
-0.034016 0.011184 0.004166 38 32 32 255
-0.034016 0.010670 0.004218 37 28 29 255
-0.034514 0.008097 0.004549 39 33 35 255
-0.034514 0.007582 0.004611 37 31 33 255
-0.033680 -0.030010 0.016481 105 91 80 255
-0.032964 -0.000461 0.006159 141 116 111 255
-0.032689 0.000467 0.005669 147 120 113 255
-0.033513 0.004492 0.004903 28 14 13 255
-0.033013 0.003460 0.004992 77 66 64 255
0.055188 0.055140 0.029121 219 179 153 255
0.057704 0.060904 0.027198 210 171 142 255
0.062549 0.054024 0.026943 205 161 134 255
0.059931 0.049095 0.028774 214 181 162 255
0.005689 0.047540 0.042029 170 108 95 255
0.013322 0.048273 0.040703 174 122 108 255
0.009734 0.042995 0.041556 77 49 45 255
0.004372 0.041517 0.042453 137 86 69 255
-0.034730 -0.027706 0.017012 105 91 82 255
-0.035007 -0.027053 0.017317 109 92 84 255
-0.031578 -0.034666 0.015440 104 88 75 255
-0.031856 -0.033003 0.015622 118 102 89 255
0.065369 0.018181 0.029456 212 172 146 255
0.067140 0.017688 0.029027 214 177 150 255
0.065823 0.006406 0.031503 223 184 155 255
0.060979 0.011133 0.032006 225 189 155 255
0.058639 0.005642 0.033531 222 183 154 255
-0.037341 0.014753 0.006497 36 32 33 255
-0.035342 0.012942 0.005129 34 28 28 255
-0.036567 0.014175 0.006157 30 26 27 255
-0.034016 0.010153 0.004279 33 27 29 255
0.061212 -0.000999 0.033765 212 167 138 255
-0.034513 0.007069 0.004673 34 28 30 255
-0.034015 0.009639 0.004341 34 28 30 255
0.018749 0.078339 0.031795 220 174 161 255
0.009021 0.078197 0.033199 221 173 163 255
0.067348 0.043777 0.026355 197 170 149 255
0.063353 0.043807 0.028069 67 51 38 255
0.007734 0.014180 0.043216 205 154 125 255
0.008683 0.016313 0.042182 192 137 107 255
0.005436 0.020332 0.042663 191 142 110 255
-0.034012 0.006037 0.004762 33 24 27 255
-0.034013 0.006551 0.004700 36 30 32 255
-0.034013 0.007065 0.004639 34 28 30 255
-0.033514 0.005005 0.004841 43 29 28 255
0.001019 0.018597 0.045688 230 181 151 255
0.000942 0.022917 0.044113 219 170 140 255
0.004811 0.023730 0.041948 177 127 104 255
0.033002 0.060399 0.033986 232 191 169 255
0.035194 0.068076 0.031511 221 184 158 255
0.043004 0.067439 0.029973 222 182 157 255
0.041386 0.060535 0.031961 219 182 155 255
0.021207 0.109388 0.023346 24 18 22 255
-0.034014 0.007583 0.004577 33 27 29 255
-0.034014 0.008097 0.004516 32 26 28 255
0.012651 0.109661 0.024261 35 29 33 255
0.003382 0.034230 0.041921 132 80 58 255
0.007545 0.036474 0.041017 123 72 53 255
0.005905 0.031043 0.041029 133 78 58 255
-0.034015 0.009125 0.004402 34 25 28 255
-0.034014 0.008610 0.004464 32 23 26 255
-0.034567 0.011847 0.004840 37 31 31 255
-0.033518 0.010667 0.004184 35 23 23 255
-0.034842 0.012432 0.005157 34 28 28 255
-0.033518 0.010153 0.004245 35 24 22 255
-0.033517 0.009638 0.004307 40 26 25 255
0.003059 0.031137 0.041932 139 87 63 255
0.024209 0.004344 0.040344 215 161 135 255
0.025256 0.006876 0.039264 202 148 122 255
0.086680 -0.020813 0.027108 161 129 104 255
0.086680 -0.020382 0.027048 172 138 113 255
0.099009 0.025160 0.014810 59 34 29 255
0.094419 0.017209 0.018928 200 162 139 255
0.087851 0.023229 0.020482 210 165 144 255
0.091815 0.030855 0.017526 176 139 120 255
0.092382 0.042722 0.015759 34 22 24 255
0.090904 0.052407 0.015102 17 13 14 255
0.103748 0.030770 0.011677 50 38 38 255
0.100354 0.029567 0.013488 44 30 30 255
-0.003477 -0.089002 0.002487 37 25 25 255
-0.004200 -0.088170 0.002076 47 35 35 255
-0.000304 0.015482 0.047221 228 177 156 255
-0.001252 0.012696 0.048330 221 169 148 255
-0.033018 0.009121 0.004335 45 31 30 255
-0.032788 0.001496 0.005562 141 116 109 255
-0.033014 0.003974 0.004931 68 57 55 255
-0.033513 -0.000769 0.006955 147 122 117 255
-0.032789 0.002006 0.005501 137 112 105 255
-0.033017 0.008607 0.004397 46 32 31 255
-0.032794 0.009709 0.004607 72 53 47 255
0.090902 0.053728 0.014942 31 23 21 255
0.100634 0.017142 0.015992 75 47 35 255
-0.032464 0.000049 0.006064 155 127 123 255
-0.032739 -0.000362 0.006493 154 129 124 255
-0.032465 0.000563 0.006002 154 127 120 255
-0.032789 0.002520 0.005439 131 111 102 255
0.100235 0.018038 0.015918 72 45 34 255
0.006944 -0.013320 0.052224 230 174 159 255
0.006270 -0.009784 0.050778 237 188 173 255
0.006720 -0.011659 0.051691 238 186 172 255
0.006021 -0.010922 0.051652 236 184 170 255
0.007245 -0.014417 0.052339 218 161 142 255
0.008118 -0.014604 0.051933 219 162 143 255
0.006946 -0.014783 0.052397 216 155 134 255
0.006946 -0.014419 0.052359 219 162 143 255
0.006320 -0.011288 0.051670 236 184 170 255
0.007144 -0.009581 0.050333 238 189 174 255
-0.001912 -0.017078 0.055064 174 109 91 255
-0.001987 -0.015805 0.055291 181 118 100 255
0.001455 -0.015115 0.054251 209 148 129 255
0.001056 -0.015476 0.054316 201 140 121 255
0.003275 -0.010569 0.052522 239 187 173 255
0.003325 -0.012406 0.053452 233 177 164 255
0.002053 -0.013669 0.054047 218 161 142 255
0.003799 -0.011856 0.052997 245 189 174 255
0.005321 -0.010550 0.051651 240 188 174 255
0.003325 -0.012770 0.053490 228 172 157 255
0.004277 -0.016412 0.053126 194 132 111 255
0.005771 -0.012772 0.052603 241 185 172 255
-0.038666 0.015968 0.007532 33 31 32 255
-0.035793 0.013593 0.005807 34 25 26 255
-0.037891 0.015394 0.007182 40 34 38 255
-0.034062 -0.001074 0.007751 148 123 118 255
-0.033514 0.005520 0.004780 35 21 20 255
-0.032790 0.003035 0.005378 133 113 104 255
-0.033289 -0.000670 0.007289 156 131 126 255
0.091087 -0.006185 0.024026 161 129 108 255
0.084053 -0.071562 0.027736 38 28 29 255
0.088308 -0.059635 0.027151 57 47 48 255
0.088485 -0.060787 0.026905 46 36 34 255
-0.034612 -0.001375 0.008547 145 120 115 255
-0.032465 0.001073 0.005951 151 126 119 255
-0.033838 -0.000975 0.008085 151 126 121 255
-0.033281 -0.030995 0.016567 120 101 94 255
-0.032465 0.001587 0.005889 151 126 119 255
-0.032789 0.003549 0.005326 126 106 99 255
-0.033517 0.009122 0.004369 38 24 23 255
-0.033793 0.011255 0.004500 36 26 25 255
0.086053 -0.074536 0.026504 32 22 23 255
0.101429 0.025907 0.013477 50 26 22 255
0.076497 0.060636 0.020537 39 28 26 255
0.080804 0.075241 0.017473 33 27 31 255
0.090230 0.054148 0.015310 30 21 22 255
-0.033516 0.008607 0.004430 38 24 23 255
-0.033516 0.008093 0.004482 41 27 26 255
0.089830 0.052834 0.015486 16 12 11 255
0.083518 0.084925 0.015088 39 33 37 255
0.092535 0.073366 0.013281 40 35 39 255
0.100554 0.060925 0.011652 33 33 33 255
0.106568 0.031115 0.010365 48 36 38 255
0.041416 0.017957 0.035436 110 75 69 255
0.041815 0.017955 0.035409 98 63 57 255
0.040043 0.017639 0.035927 95 61 52 255
-0.033514 0.006034 0.004728 42 28 27 255
-0.033515 0.006552 0.004667 41 30 28 255
-0.033515 0.007065 0.004605 40 29 27 255
-0.033516 0.007579 0.004543 41 30 28 255
0.040043 0.018039 0.035888 93 58 52 255
0.041415 0.017557 0.035485 118 84 75 255
0.039642 0.018438 0.035866 91 58 51 255
-0.033015 0.005002 0.004808 66 52 51 255
-0.033290 0.004577 0.005237 60 46 45 255
-0.033016 0.006548 0.004633 55 44 42 255
-0.033290 0.005605 0.005124 52 38 37 255
0.042114 0.017952 0.035388 98 63 57 255
0.042513 0.017952 0.035361 110 75 69 255
0.042911 0.017950 0.035334 118 81 73 255
0.024478 0.018515 0.036882 85 47 38 255
0.025575 0.018511 0.036808 83 44 37 255
0.027571 0.018101 0.036722 84 47 39 255
0.027396 0.018574 0.037044 87 48 41 255
0.024478 0.018115 0.036931 88 49 42 255
0.027397 0.016986 0.037229 94 49 43 255
-0.033016 0.007062 0.004571 54 43 41 255
-0.033017 0.007576 0.004510 52 41 39 255
-0.033017 0.008089 0.004448 51 37 36 255
-0.033290 0.006118 0.005062 53 39 38 255
-0.032790 0.004062 0.005264 121 101 94 255
-0.032791 0.004576 0.005203 114 94 87 255
-0.033293 0.010741 0.004528 33 21 21 255
0.024327 0.022377 0.035733 48 24 24 255
0.023928 0.022380 0.035760 47 23 23 255
-0.032791 0.006115 0.005028 101 82 76 255
0.025175 0.019709 0.036698 75 42 35 255
0.022730 0.022384 0.035831 47 26 23 255
0.023130 0.022381 0.035804 47 26 23 255
-0.039615 0.017105 0.008193 42 40 41 255
-0.041216 0.018852 0.009536 64 65 69 255
-0.041491 0.019408 0.009853 71 72 74 255
0.023603 0.023523 0.035285 45 24 19 255
0.024002 0.023523 0.035258 46 25 20 255
0.023354 0.021245 0.036286 58 33 28 255
-0.032466 0.002098 0.005828 150 125 118 255
-0.032466 0.002612 0.005766 145 125 116 255
-0.032466 0.003127 0.005715 147 127 118 255
-0.032516 0.000248 0.006765 155 122 113 255
-0.032967 0.005175 0.005502 114 94 87 255
-0.032467 0.003636 0.005653 138 118 111 255
-0.032516 0.000755 0.006713 157 124 115 255
-0.033968 0.011843 0.004800 37 27 25 255
-0.032792 0.006629 0.004967 106 86 79 255
-0.032793 0.007143 0.004905 100 79 74 255
-0.032793 0.007657 0.004844 92 73 67 255
-0.032967 0.005689 0.005451 102 82 75 255
-0.032793 0.008686 0.004730 78 57 52 255
-0.032466 0.004150 0.005592 137 117 110 255
-0.032743 0.004750 0.005897 133 113 106 255
0.021684 0.020523 0.036846 71 42 36 255
0.021059 0.021655 0.036392 61 35 34 255
-0.035437 -0.001565 0.009710 148 123 118 255
-0.032130 -0.032333 0.015927 122 106 91 255
-0.034388 -0.001272 0.008880 153 128 123 255
-0.040166 0.017729 0.008878 40 38 41 255
-0.039116 0.016601 0.008211 34 32 33 255
-0.037117 0.014821 0.006842 30 26 27 255
-0.040441 0.018292 0.009195 35 33 36 255
-0.034344 0.012428 0.005123 37 27 25 255
-0.032794 0.009195 0.004669 75 54 49 255
-0.035018 0.013013 0.005466 32 26 26 255
-0.033470 0.011328 0.004828 34 24 23 255
0.021533 0.022793 0.035873 47 26 25 255
0.032086 0.016563 0.036951 98 53 47 255
0.032485 0.015767 0.037022 107 60 52 255
0.028194 0.016187 0.037263 108 59 52 255
0.027796 0.016983 0.037203 95 50 44 255
0.031688 0.016962 0.036939 95 55 47 255
0.035179 0.017740 0.036615 102 67 61 255
0.035354 0.016466 0.036381 103 63 55 255
0.035754 0.016068 0.036403 106 63 56 255
-0.032516 0.001266 0.006652 156 123 114 255
-0.032790 -0.000163 0.007193 156 123 114 255
-0.032468 0.006199 0.005355 133 114 108 255
-0.032468 0.006710 0.005294 130 110 103 255
-0.036661 -0.001747 0.010890 107 92 89 255
-0.033341 -0.000468 0.007989 156 123 114 255
-0.036343 0.014242 0.006491 32 23 24 255
-0.038443 0.016032 0.007877 40 34 38 255
-0.039392 0.017165 0.008527 34 32 33 255
-0.037668 0.015457 0.007526 35 29 33 255
0.024702 0.016997 0.037402 98 53 47 255
0.024478 0.017719 0.036980 86 47 42 255
0.036153 0.015269 0.036464 115 68 58 255
0.032885 0.014968 0.037083 120 68 55 255
-0.034518 0.013010 0.005433 37 27 25 255
-0.035568 0.013665 0.006141 32 23 24 255
0.028195 0.015391 0.037351 127 79 69 255
0.024703 0.016601 0.037451 102 55 47 255
0.021608 0.018204 0.037474 90 52 43 255
0.022008 0.018602 0.037408 86 48 39 255
0.032886 0.014572 0.037132 122 73 59 255
0.033061 0.013688 0.036859 138 85 71 255
0.028195 0.013802 0.037537 141 89 76 255
0.028195 0.014595 0.037449 134 82 71 255
-0.038617 0.016598 0.008177 42 36 38 255
-0.039667 0.017729 0.008844 32 30 33 255
-0.037943 0.016028 0.007843 34 28 32 255
-0.036893 0.014887 0.007176 30 24 24 255
-0.033845 0.011914 0.005151 37 27 25 255
-0.036119 0.014310 0.006835 31 22 23 255
-0.032970 0.010811 0.004856 62 47 42 255
-0.032970 0.010301 0.004917 69 50 44 255
0.036329 0.014784 0.036152 122 74 62 255
0.035930 0.013588 0.036316 141 89 75 255
-0.040993 0.018908 0.009880 32 30 33 255
-0.041267 0.019464 0.010197 35 33 36 255
0.045482 0.017863 0.034811 126 88 79 255
0.046279 0.019460 0.034571 102 69 64 255
0.046279 0.019060 0.034620 106 71 65 255
-0.032517 0.001775 0.006590 151 118 109 255
0.045880 0.017860 0.034784 124 84 72 255
0.049326 0.015677 0.034078 170 124 100 255
0.051096 0.017206 0.033423 168 121 103 255
0.052868 0.015907 0.033091 175 130 107 255
-0.035345 0.013732 0.006485 34 23 21 255
-0.039267 0.017227 0.008878 43 37 39 255
-0.037444 0.015525 0.007861 31 22 27 255
-0.036537 -0.001644 0.011230 149 124 119 255
-0.032517 0.002286 0.006529 148 115 106 255
-0.038494 0.016659 0.008528 34 28 30 255
-0.034295 0.012569 0.005828 40 30 28 255
-0.033345 0.011401 0.005178 61 46 41 255
-0.032968 0.008252 0.005153 83 64 58 255
0.051098 0.015992 0.033570 179 133 110 255
-0.032469 0.007224 0.005232 128 107 102 255
-0.032743 0.005264 0.005846 132 112 105 255
0.060011 0.007155 0.032903 223 186 157 255
0.052871 0.012665 0.033464 199 155 128 255
0.055040 0.014191 0.032782 203 162 134 255
0.043885 0.017068 0.035017 114 80 68 255
0.043487 0.017070 0.035044 109 75 63 255
0.044109 0.018741 0.035165 115 84 79 255
0.044907 0.019539 0.035014 98 67 64 255
0.044284 0.017065 0.034991 117 81 67 255
0.043886 0.016667 0.035056 113 77 65 255
0.041814 0.017554 0.035458 104 70 61 255
0.042114 0.017152 0.035486 102 68 58 255
0.040618 0.016364 0.035676 109 73 61 255
0.040441 0.017240 0.035949 109 75 65 255
0.038048 0.016854 0.036160 110 76 67 255
-0.032517 0.002796 0.006477 151 123 111 255
-0.032518 0.003307 0.006416 153 126 115 255
0.037648 0.017253 0.036138 112 77 71 255
0.038624 0.015575 0.035909 111 71 59 255
0.041017 0.015961 0.035698 112 74 63 255
0.039022 0.015572 0.035882 112 72 60 255
0.043487 0.016267 0.035132 105 67 56 255
0.044285 0.016664 0.035030 118 79 62 255
0.046356 0.016578 0.034540 140 94 78 255
0.046755 0.017378 0.034425 122 82 70 255
0.047154 0.017378 0.034398 130 83 73 255
0.046356 0.016175 0.034589 146 98 78 255
0.046456 0.015774 0.034632 147 96 75 255
0.046457 0.015370 0.034671 149 98 77 255
0.044285 0.016265 0.035079 122 81 59 255
0.046755 0.016978 0.034464 128 86 70 255
0.047154 0.016975 0.034437 133 87 72 255
-0.036669 0.014951 0.007520 30 24 24 255
-0.034845 0.013222 0.006513 42 32 30 255
-0.032845 0.009866 0.005319 110 91 85 255
-0.032470 0.008759 0.005058 119 98 93 255
0.043487 0.015867 0.035181 114 74 64 255
0.043488 0.015068 0.035269 129 83 67 255
0.041418 0.014759 0.035808 137 90 70 255
0.041017 0.015162 0.035786 120 77 60 255
-0.036283 -0.019578 0.016896 142 124 114 255
-0.032745 0.009351 0.005364 115 94 89 255
-0.032744 0.008329 0.005487 123 104 98 255
-0.034071 0.012134 0.006224 59 44 39 255
0.039023 0.014772 0.035970 128 81 65 255
0.039422 0.013970 0.036031 141 92 77 255
-0.032743 0.005775 0.005785 129 109 102 255
-0.032744 0.007820 0.005549 126 107 101 255
-0.033022 0.010454 0.005619 107 88 82 255
-0.032518 0.003818 0.006354 150 123 112 255
0.031688 0.017361 0.036890 96 59 50 255
0.031687 0.017758 0.036841 97 60 51 255
0.034779 0.017743 0.036642 98 63 57 255
0.034381 0.017346 0.036708 95 61 52 255
0.037648 0.017653 0.036089 111 76 72 255
-0.031454 -0.033499 0.015657 123 101 90 255
-0.032519 0.007387 0.005944 145 118 109 255
-0.032518 0.004328 0.006303 149 122 111 255
0.037648 0.018049 0.036050 109 78 73 255
0.034956 0.016869 0.036369 96 59 50 255
0.035354 0.017267 0.036293 99 65 56 255
0.037250 0.018052 0.036077 107 74 69 255
0.038446 0.017247 0.036084 112 78 69 255
-0.033297 0.011038 0.005935 101 86 81 255
-0.036171 0.014444 0.007538 32 20 20 255
0.031063 0.016490 0.036671 99 54 48 255
0.031063 0.017286 0.036583 93 56 47 255
0.027572 0.017305 0.036819 89 48 42 255
-0.034440 -0.000566 0.009520 155 122 113 255
0.027970 0.018101 0.036695 87 50 42 255
0.025176 0.018114 0.036884 85 48 40 255
0.034168 0.031801 0.036490 102 77 72 255
0.034791 0.031833 0.036808 112 87 80 255
0.039111 0.028540 0.035817 48 33 28 255
0.038712 0.028543 0.035844 38 24 21 255
0.125243 0.027822 0.000812 129 106 98 255
0.122247 0.029432 0.002272 55 41 38 255
-0.032520 0.008408 0.005831 137 113 103 255
0.041582 0.027294 0.035437 87 77 76 255
0.041581 0.027690 0.035388 82 72 70 255
0.043753 0.026838 0.034979 88 70 66 255
0.043754 0.026042 0.035067 95 81 80 255
0.041107 0.026555 0.035906 92 87 84 255
-0.040217 0.018349 0.009530 29 27 30 255
-0.039444 0.017788 0.009179 42 33 36 255
-0.040494 0.018905 0.009847 29 27 30 255
-0.040769 0.019461 0.010163 30 28 31 255
-0.041718 0.020074 0.010876 38 36 37 255
-0.039993 0.018409 0.009874 41 32 35 255
-0.037994 0.016160 0.008545 31 22 25 255
-0.033572 0.011623 0.006242 100 85 80 255
-0.034621 0.012785 0.006908 57 42 37 255
0.043354 0.025249 0.035182 98 87 83 255
0.038713 0.027357 0.035981 39 29 27 255
-0.035764 -0.001253 0.010768 155 130 125 255
-0.035541 -0.000654 0.011050 155 122 113 255
-0.032794 0.004927 0.006609 147 120 109 255
-0.032794 0.005437 0.006547 146 119 108 255
-0.032520 0.007897 0.005882 140 116 106 255
-0.032797 0.009000 0.006137 133 108 101 255
-0.035672 0.013941 0.007565 39 28 26 255
-0.032795 0.005944 0.006486 146 119 110 255
0.038712 0.028146 0.035883 36 25 23 255
0.039111 0.028144 0.035856 53 39 36 255
0.043512 0.024901 0.030156 43 33 31 255
0.042316 0.025320 0.030198 37 27 25 255
-0.032795 0.006455 0.006434 142 118 108 255
-0.032795 0.006961 0.006373 145 118 109 255
-0.033071 0.009588 0.006443 131 104 97 255
-0.037495 0.015656 0.008573 34 25 30 255
-0.038945 0.017285 0.009206 34 28 30 255
-0.036996 0.015153 0.008600 33 23 22 255
-0.037813 -0.001608 0.013120 146 121 116 255
-0.037314 -0.001118 0.013025 154 129 124 255
-0.037190 -0.000522 0.013314 154 124 114 255
-0.036284 -0.019093 0.016845 141 121 112 255
-0.036558 -0.019915 0.017313 132 114 104 255
-0.036559 -0.018459 0.017150 145 127 115 255
0.042038 0.024767 0.032084 55 47 45 255
0.042864 0.024600 0.030959 47 39 37 255
0.044012 0.025311 0.030083 37 27 26 255
0.042465 0.024600 0.030986 48 40 38 255
0.043689 0.025673 0.029696 30 23 17 255
0.043290 0.026090 0.029683 21 16 12 255
0.042315 0.025730 0.030149 29 21 18 255
-0.039739 -0.001340 0.015741 145 120 115 255
-0.040688 -0.001606 0.016563 97 83 80 255
0.044087 0.025670 0.029669 29 22 16 255
-0.038444 0.016786 0.009234 32 23 26 255
-0.038046 0.016287 0.009258 33 24 27 255
-0.037821 0.015855 0.009653 36 24 26 255
-0.039495 0.017909 0.009891 35 26 29 255
-0.038996 0.017413 0.009919 30 21 22 255
-0.040543 0.019025 0.010559 40 34 38 255
0.044487 0.025671 0.029642 27 19 17 255
-0.040544 0.019518 0.010498 37 32 36 255
-0.040045 0.018529 0.010576 36 27 30 255
-0.042269 0.020679 0.011561 41 39 40 255
-0.041594 0.020131 0.011227 33 31 32 255
-0.040320 0.019082 0.010894 35 29 33 255
-0.039546 0.018032 0.010604 30 20 21 255
-0.040066 -0.000539 0.016758 153 128 123 255
-0.041513 -0.001754 0.017715 99 85 82 255
-0.038372 0.016482 0.010348 33 21 23 255
0.044887 0.025668 0.029625 25 17 15 255
0.044311 0.025309 0.030063 37 27 26 255
0.063612 -0.009159 0.034536 208 163 130 255
0.063081 0.002952 0.032819 219 178 148 255
-0.041270 0.020182 0.011555 37 31 33 255
-0.043095 0.021337 0.012625 36 35 33 255
-0.038771 0.016977 0.010314 31 22 25 255
0.067030 -0.006331 0.032898 211 166 137 255
0.044508 0.018741 0.035139 116 83 78 255
-0.039322 0.017600 0.010999 29 20 21 255
-0.042320 0.020792 0.012274 27 25 26 255
0.044907 0.019939 0.034974 90 60 58 255
-0.041145 0.019751 0.011957 32 27 31 255
-0.042870 0.021391 0.012970 27 26 24 255
-0.040372 0.018710 0.011667 30 20 21 255
-0.044593 0.022527 0.014034 36 36 36 255
0.042735 0.019619 0.035520 101 70 68 255
-0.034229 -0.028687 0.017091 109 97 85 255
-0.036832 -0.020251 0.017730 132 114 104 255
-0.037333 -0.016856 0.017378 135 118 111 255
-0.035281 -0.026400 0.017622 119 101 89 255
-0.036834 -0.017827 0.017456 147 129 117 255
-0.037884 -0.016086 0.018050 136 119 111 255
0.043134 0.020412 0.035395 82 56 57 255
-0.039872 0.018217 0.011685 28 18 19 255
-0.041563 -0.001059 0.018365 145 122 116 255
-0.041197 0.019382 0.012731 29 20 21 255
-0.042646 0.020958 0.013365 31 25 27 255
0.043839 0.024953 0.030494 45 35 34 255
0.046678 0.020260 0.034456 113 82 77 255
0.042113 0.017552 0.035437 96 62 52 255
0.041667 0.024606 0.031040 48 40 38 255
0.042066 0.024603 0.031013 49 41 39 255
-0.043819 0.021989 0.013682 23 22 20 255
-0.042146 0.020473 0.013392 30 24 26 255
-0.043596 0.022038 0.014027 27 26 24 255
-0.044371 0.022576 0.014379 33 32 30 255
-0.045045 0.023114 0.014723 23 23 23 255
-0.044645 0.023112 0.014696 34 33 31 255
-0.041647 0.019984 0.013410 25 19 19 255
0.043311 0.017947 0.035307 118 81 73 255
0.041416 0.017157 0.035534 116 82 72 255
0.040042 0.018435 0.035839 99 66 59 255
0.043439 0.024952 0.030521 43 33 32 255
0.043513 0.025312 0.030117 37 28 23 255
-0.041524 0.019077 0.013872 29 19 20 255
-0.043472 0.021609 0.014429 27 21 21 255
0.042688 0.024653 0.031330 51 43 41 255
-0.045320 0.023645 0.015040 30 30 30 255
0.042640 0.024958 0.030575 43 33 31 255
0.041417 0.024306 0.031815 52 43 44 255
-0.043246 0.021184 0.014824 29 23 25 255
-0.044921 0.023642 0.015014 26 25 23 255
-0.044421 0.022682 0.015091 27 26 24 255
-0.045871 0.024222 0.015737 28 26 27 255
-0.046820 0.024799 0.016450 52 50 53 255
-0.042748 0.020702 0.014842 27 21 21 255
0.043115 0.025315 0.030144 37 28 23 255
0.044236 0.025361 0.030418 36 26 24 255
0.042241 0.024961 0.030602 43 33 31 255
-0.044197 0.022257 0.015487 26 20 22 255
0.042715 0.025317 0.030171 37 27 25 255
0.041842 0.024961 0.030629 40 30 28 255
-0.005574 -0.086795 0.002369 54 39 42 255
-0.031454 -0.033992 0.015708 121 97 87 255
0.044709 0.025720 0.029986 26 18 16 255
0.043087 0.025061 0.031254 45 37 35 255
0.046678 0.019457 0.034544 115 78 70 255
0.046677 0.020660 0.034407 97 68 64 255
0.045109 0.025717 0.029959 28 20 18 255
0.046678 0.019057 0.034593 116 77 70 255
-0.047595 0.025797 0.016751 57 56 61 255
-0.054416 0.041948 0.016432 69 72 77 255
-0.054417 0.042420 0.016371 63 66 71 255
-0.054591 0.041019 0.016905 84 87 92 255
-0.047594 0.025326 0.016801 59 58 63 255
0.048349 0.019783 0.034033 125 87 78 255
0.047554 0.017375 0.034371 136 89 79 255
0.045685 0.026077 0.029521 27 19 16 255
0.046258 0.026439 0.029073 28 20 17 255
-0.045647 0.024272 0.016071 26 25 23 255
-0.042612 -0.001789 0.019244 101 86 83 255
-0.042389 -0.001208 0.019517 142 119 113 255
0.049723 0.019708 0.033591 126 86 74 255
0.049724 0.017288 0.033865 165 116 101 255
0.044060 0.025413 0.030789 34 24 22 255
-0.041990 -0.000260 0.019388 151 126 121 255
-0.043161 -0.002036 0.020029 96 82 79 255
-0.038935 -0.014356 0.018644 142 124 112 255
-0.038159 -0.015463 0.018355 139 120 113 255
0.044887 0.026083 0.029575 20 12 10 255
0.045286 0.026080 0.029548 22 14 11 255
-0.037385 -0.017053 0.018128 144 126 116 255
-0.038711 -0.014699 0.019027 141 123 113 255
-0.037108 -0.020580 0.018148 130 112 102 255
-0.037935 -0.016284 0.018799 142 122 113 255
0.045858 0.026442 0.029101 22 14 11 255
0.044488 0.026086 0.029602 21 13 11 255
0.043886 0.025877 0.031112 30 22 19 255
0.044459 0.026235 0.030664 31 23 21 255
-0.040434 -0.012845 0.020015 139 124 119 255
-0.040036 -0.013323 0.020039 146 126 117 255
-0.037160 -0.018836 0.018673 148 130 120 255
-0.037382 -0.020913 0.018575 130 112 102 255
0.045033 0.026594 0.030226 33 23 22 255
0.045701 0.025130 0.034324 90 76 73 255
-0.048269 0.026792 0.017045 50 49 54 255
-0.054591 0.041487 0.016855 87 90 95 255
0.045701 0.025530 0.034275 91 76 73 255
0.042836 0.025579 0.031931 32 24 21 255
0.044088 0.026085 0.029629 21 16 12 255
-0.048268 0.025847 0.017156 75 74 79 255
-0.048269 0.026321 0.017095 53 52 57 255
-0.047095 0.025323 0.016768 48 46 49 255
-0.047096 0.025794 0.016717 49 47 50 255
0.042438 0.025171 0.032008 43 35 33 255
0.041241 0.024362 0.032177 49 44 41 255
0.041214 0.025337 0.033159 41 33 30 255
-0.043713 -0.002284 0.020813 95 81 78 255
-0.043214 -0.001344 0.020678 145 120 115 255
-0.038486 -0.015518 0.019471 142 122 111 255
-0.047870 0.026318 0.017069 58 57 62 255
-0.054866 0.040562 0.017345 61 62 67 255
-0.035556 -0.025747 0.017927 126 108 98 255
-0.034506 -0.028030 0.017395 108 94 83 255
-0.027334 -0.105221 0.004175 137 141 153 255
-0.030306 -0.104245 0.006069 179 186 202 255
-0.043262 -0.122004 0.007563 155 149 153 255
-0.030850 -0.109262 0.005967 110 110 122 255
-0.047870 0.026789 0.017018 52 51 56 255
-0.049718 0.028297 0.017691 53 53 55 255
0.041582 0.025708 0.035612 101 96 93 255
0.040388 0.025902 0.034225 36 28 26 255
0.038713 0.026565 0.036068 49 41 39 255
-0.037160 -0.019318 0.018734 138 120 110 255
-0.037382 -0.021395 0.018625 129 111 101 255
-0.037435 -0.018204 0.018989 149 129 120 255
-0.043763 -0.001589 0.021463 137 118 111 255
-0.039811 -0.013663 0.020422 145 127 115 255
0.038714 0.026173 0.036117 50 44 44 255
0.035192 0.031830 0.036781 108 81 72 255
0.039731 0.030946 0.035852 79 54 47 255
0.037647 0.027639 0.032046 19 8 6 255
0.037249 0.027235 0.032123 21 10 8 255
0.034827 0.026985 0.033395 25 14 12 255
0.034176 0.029098 0.033923 26 11 8 255
-0.037711 -0.017576 0.019294 147 129 117 255
0.022805 0.023529 0.035339 46 25 20 255
0.023204 0.023929 0.035264 42 21 16 255
-0.043973 0.021831 0.015882 27 21 21 255
-0.043349 0.019979 0.016412 29 20 21 255
-0.037657 -0.021720 0.019042 120 103 95 255
-0.037434 -0.019647 0.019151 138 120 110 255
-0.037987 -0.016953 0.019600 147 129 117 255
-0.039036 -0.014755 0.020133 147 125 114 255
-0.045246 0.023319 0.016156 25 24 22 255
0.024002 0.023923 0.035209 47 27 20 255
0.023603 0.023926 0.035236 44 24 17 255
0.021932 0.022790 0.035846 46 25 24 255
0.023204 0.023526 0.035312 45 24 19 255
-0.041261 -0.011962 0.021054 140 125 120 255
-0.040861 -0.012436 0.021077 145 125 116 255
-0.038536 -0.016186 0.020272 145 127 117 255
-0.044538 -0.002406 0.021965 91 77 74 255
-0.036107 -0.024938 0.018588 128 111 101 255
-0.037157 -0.023648 0.019232 121 104 96 255
-0.037984 -0.019819 0.019934 135 117 107 255
-0.037432 -0.023005 0.019537 122 103 96 255
-0.045023 0.022894 0.016551 26 22 23 255
-0.044125 0.021466 0.016652 28 22 22 255
-0.044799 0.022472 0.016946 25 19 21 255
-0.044040 -0.001943 0.021881 136 117 110 255
-0.043641 -0.000078 0.021642 151 128 122 255
-0.044712 -0.002758 0.022385 86 75 73 255
-0.043916 -0.000436 0.022059 146 123 117 255
-0.045697 0.023896 0.016845 19 18 16 255
-0.044987 -0.003108 0.022803 88 77 75 255
-0.046696 0.024849 0.016801 35 33 36 255
-0.048544 0.027306 0.017363 53 53 55 255
-0.047371 0.026315 0.017035 52 50 53 255
-0.054367 0.040558 0.017311 61 62 67 255
-0.049719 0.029236 0.017580 51 51 53 255
-0.050893 0.031155 0.017797 76 77 81 255
-0.040637 -0.012772 0.021461 143 123 114 255
-0.044089 -0.000791 0.022470 152 127 122 255
-0.042085 -0.011086 0.022083 144 129 124 255
-0.034781 -0.027375 0.017700 119 105 96 255
-0.035157 -0.026721 0.018012 121 104 96 255
-0.046971 0.025369 0.017119 45 43 46 255
-0.042859 -0.010479 0.022432 140 125 120 255
-0.037708 -0.022367 0.019842 127 108 101 255
-0.046747 0.024944 0.017514 31 30 35 255
-0.048145 0.027306 0.017336 51 51 53 255
-0.035431 -0.026069 0.018317 132 114 102 255
-0.038359 -0.020143 0.020358 138 120 110 255
-0.047647 0.026832 0.017353 50 48 51 255
-0.041686 -0.011556 0.022116 146 126 117 255
-0.049318 0.028295 0.017664 51 51 53 255
0.026915 0.027366 0.036419 55 38 28 255
0.025746 0.025230 0.035664 73 49 39 255
-0.033455 -0.030329 0.016864 121 102 95 255
-0.031732 -0.032825 0.015951 128 106 95 255
0.024624 0.025583 0.035331 53 29 17 255
-0.044863 -0.002066 0.023032 132 113 106 255
0.024225 0.025583 0.035358 51 26 19 255
-0.033831 -0.029668 0.017176 123 103 94 255
-0.040136 -0.013718 0.021538 148 126 113 255
0.027538 0.025831 0.036912 34 20 17 255
0.025496 0.024941 0.036439 80 58 45 255
0.032906 0.025941 0.034732 29 19 17 255
-0.045537 -0.003334 0.023587 97 85 85 255
-0.043409 -0.009746 0.023105 140 125 120 255
-0.044084 -0.009147 0.023438 124 116 113 255
0.042492 0.103025 0.020111 24 18 20 255
0.060586 0.091230 0.019168 81 65 50 255
-0.038359 -0.020618 0.020408 140 122 112 255
-0.037984 -0.021732 0.020147 129 110 103 255
-0.038358 -0.021096 0.020469 135 118 110 255
-0.037033 -0.023969 0.019622 133 116 108 255
-0.034106 -0.029008 0.017480 128 105 97 255
-0.032781 -0.031487 0.016594 122 106 91 255
-0.034382 -0.028348 0.017785 130 107 99 255
-0.035983 -0.025260 0.018978 134 116 106 255
0.098400 0.074589 0.010941 35 29 33 255
0.093203 0.084404 0.011606 55 53 54 255
-0.057398 0.061660 0.014710 48 46 47 255
-0.054368 0.041961 0.017140 45 48 53 255
-0.057672 0.060689 0.015201 66 64 65 255
-0.052567 0.034938 0.017836 35 39 42 255
-0.052067 0.033063 0.018015 78 82 85 255
-0.054368 0.041025 0.017251 63 66 71 255
-0.055141 0.040107 0.017775 65 64 72 255
-0.052068 0.034466 0.017853 43 44 48 255
-0.052068 0.034934 0.017802 39 40 44 255
-0.047146 0.025885 0.017430 45 43 46 255
0.040469 0.026664 0.030884 20 15 11 255
0.040469 0.026253 0.030934 20 12 9 255
0.096147 0.084592 0.010660 36 31 35 255
0.077171 0.100992 0.014377 24 17 24 255
0.077171 0.101420 0.014328 23 17 21 255
-0.003977 -0.087903 0.002386 46 34 34 255
-0.004199 -0.088720 0.002139 46 36 37 255
-0.046248 0.024469 0.017531 20 19 17 255
-0.045749 0.023524 0.017609 25 21 22 255
0.021059 0.022055 0.036353 52 28 28 255
-0.033056 -0.030821 0.016898 126 107 100 255
0.022730 0.023187 0.035743 47 28 24 255
-0.037209 -0.023327 0.019920 138 119 112 255
-0.037583 -0.022688 0.020232 136 117 110 255
-0.054640 0.039173 0.017852 77 78 83 255
-0.053241 0.035432 0.018182 90 91 95 255
0.020186 0.021326 0.036849 69 40 36 255
0.018989 0.021732 0.036892 72 39 30 255
0.020261 0.022460 0.036358 46 20 19 255
0.020659 0.023657 0.036194 48 23 19 255
0.025720 0.024601 0.036822 82 63 49 255
0.022952 0.025643 0.035804 50 26 22 255
0.027140 0.027019 0.036803 32 19 11 255
0.027140 0.026230 0.036890 40 23 16 255
0.032330 0.025597 0.035169 33 23 21 255
0.035144 0.031365 0.036123 88 65 59 255
0.026740 0.028207 0.036693 30 15 12 255
0.022079 0.026099 0.036173 57 30 23 255
0.025641 0.028608 0.036728 48 25 19 255
0.022477 0.026892 0.036049 63 34 28 255
0.034568 0.031798 0.036463 104 79 74 255
0.035666 0.031401 0.036438 97 74 68 255
0.022483 0.019321 0.036929 86 48 39 255
0.019613 0.019807 0.037433 84 50 40 255
0.022881 0.019318 0.036902 84 46 37 255
0.020411 0.019801 0.037380 86 52 42 255
0.023680 0.019317 0.036848 81 44 36 255
0.020585 0.020927 0.036871 72 43 37 255
0.019213 0.020207 0.037412 80 50 40 255
-0.017279 -0.108353 0.003493 59 58 66 255
-0.018600 -0.109769 0.003384 55 51 65 255
0.023679 0.019717 0.036799 77 43 34 255
0.018988 0.022527 0.036793 62 33 25 255
0.018116 0.021007 0.037388 73 44 38 255
0.017715 0.022994 0.037190 76 48 34 255
0.016918 0.021011 0.037469 82 50 35 255
0.019784 0.024917 0.036466 64 35 29 255
0.020658 0.024056 0.036145 49 21 18 255
0.017716 0.021006 0.037415 73 44 38 255
0.018340 0.019089 0.037957 89 49 39 255
0.016844 0.019889 0.037970 92 56 42 255
0.017242 0.019094 0.038031 93 55 44 255
0.024304 0.015807 0.037566 115 66 61 255
0.024305 0.015411 0.037615 119 70 63 255
0.020811 0.017414 0.037626 90 50 42 255
0.020811 0.017018 0.037665 96 51 45 255
0.032662 0.012495 0.037023 148 94 82 255
0.035931 0.012789 0.036404 151 99 85 255
0.032265 0.011302 0.037187 162 104 92 255
-0.008507 -0.009180 0.057490 224 175 160 255
-0.009503 -0.008823 0.057520 228 179 164 255
-0.008433 -0.006882 0.056862 230 178 164 255
-0.007260 -0.007053 0.056436 224 172 158 255
0.035757 0.011285 0.036950 163 107 94 255
0.027325 0.011911 0.038180 154 98 85 255
0.028197 0.013006 0.037635 154 100 88 255
0.008075 -0.108942 0.009417 57 40 33 255
0.046857 0.015367 0.034644 148 97 76 255
0.049327 0.013664 0.034314 181 134 106 255
0.048132 0.011655 0.034630 177 127 100 255
0.046457 0.014567 0.034769 164 111 93 255
0.043488 0.013865 0.035407 150 102 80 255
-0.008075 -0.017860 0.057384 159 94 74 255
-0.007078 -0.016446 0.057154 171 106 88 255
-0.007477 -0.017154 0.057257 161 96 76 255
-0.008474 -0.018214 0.057449 158 93 73 255
0.045262 0.012163 0.035124 169 117 95 255
0.042293 0.011867 0.035723 168 116 95 255
0.042292 0.013470 0.035537 156 105 86 255
0.039023 0.013174 0.036156 148 97 80 255
0.039025 0.011575 0.036342 165 109 94 255
0.051892 0.019223 0.033133 158 111 95 255
0.052865 0.022389 0.032345 117 83 74 255
0.054638 0.018256 0.032337 191 146 125 255
0.056983 0.022185 0.031008 132 94 81 255
0.016916 0.023396 0.037195 96 54 38 255
-0.005213 -0.007391 0.055613 222 170 156 255
-0.004212 -0.010957 0.055966 214 162 148 255
-0.006160 -0.009535 0.056647 221 169 155 255
-0.006386 -0.006510 0.055953 225 173 159 255
0.016119 0.021810 0.037435 92 57 38 255
0.014370 0.024715 0.037940 103 62 44 255
0.014848 0.021880 0.037871 97 60 41 255
0.015166 0.027476 0.037564 110 63 43 255
0.017714 0.026571 0.036780 86 49 33 255
0.015646 0.019501 0.038090 96 60 44 255
0.016445 0.018704 0.038134 94 57 41 255
0.015246 0.019500 0.038117 103 64 47 255
0.016047 0.017913 0.038249 102 58 47 255
0.023830 0.014306 0.038132 126 76 65 255
0.023034 0.013123 0.038333 144 91 77 255
0.019539 0.016311 0.038198 104 59 53 255
0.018741 0.015520 0.038340 116 69 61 255
0.100182 0.023754 0.014531 58 31 24 255
0.124667 0.029316 0.001038 68 54 51 255
0.046841 0.034768 0.033851 99 62 44 255
0.045246 0.031200 0.034369 132 99 90 255
0.040529 0.032125 0.035661 111 82 76 255
0.043045 0.036470 0.035353 107 71 55 255
0.049755 0.039139 0.033506 106 76 66 255
0.052454 0.035860 0.032263 116 80 64 255
0.050162 0.032265 0.032830 89 56 41 255
0.048392 0.029911 0.033584 103 73 62 255
0.054235 0.025976 0.031481 79 52 43 255
0.051888 0.025688 0.032388 75 50 45 255
0.051888 0.026495 0.032290 63 46 39 255
0.053260 0.027248 0.031759 101 74 65 255
0.055607 0.025513 0.031077 89 61 50 255
0.056004 0.027955 0.030765 98 69 61 255
0.051712 0.029367 0.032338 101 73 62 255
0.050340 0.028211 0.032928 86 66 55 255
0.053881 0.032142 0.031508 112 76 60 255
0.025065 0.031808 0.036756 65 31 21 255
0.025464 0.031412 0.036768 63 31 20 255
0.021202 0.028541 0.036309 65 32 25 255
0.019530 0.029386 0.036684 85 48 30 255
0.021173 0.033799 0.036785 97 56 38 255
0.016985 0.030670 0.037429 102 61 43 255
0.036732 0.038910 0.036579 107 72 53 255
0.034217 0.032656 0.037119 118 89 83 255
0.025243 0.028611 0.036755 50 27 21 255
0.022699 0.027738 0.036295 64 37 28 255
0.024842 0.028614 0.036772 54 29 22 255
0.022401 0.027740 0.036316 64 37 28 255
0.080736 0.104553 0.013365 29 23 27 255
0.081135 0.104978 0.013288 33 27 31 255
0.070573 0.117780 0.014330 41 35 39 255
0.070972 0.117778 0.014303 37 31 35 255
0.041580 0.028086 0.035339 69 58 54 255
0.041980 0.028083 0.035312 64 49 46 255
0.045024 0.027177 0.034484 57 38 32 255
0.044153 0.027231 0.034903 65 46 40 255
0.046974 0.025870 0.033790 73 55 51 255
0.047373 0.026670 0.033665 48 31 24 255
0.048347 0.025809 0.033337 52 33 29 255
0.045683 0.026905 0.029423 29 19 17 255
0.045284 0.026908 0.029450 26 16 14 255
0.045683 0.027319 0.029374 27 17 15 255
0.022401 0.028136 0.036277 62 35 28 255
0.024842 0.030195 0.036597 60 31 23 255
0.103088 0.079795 0.008583 50 46 47 255
0.044799 0.075343 0.027490 225 183 161 255
0.055253 0.072857 0.025263 217 177 151 255
0.051764 0.066096 0.027726 217 177 152 255
0.043975 0.029661 0.034991 113 86 77 255
0.046221 0.028369 0.034266 72 53 46 255
0.047772 0.027066 0.033599 52 35 28 255
0.049143 0.026206 0.033234 47 28 22 255
0.050516 0.025342 0.032880 54 29 24 255
0.091087 -0.005749 0.023977 166 131 111 255
0.091086 -0.005317 0.023927 167 135 114 255
0.131437 0.022050 -0.001835 201 147 121 255
0.100755 0.025056 0.013982 59 34 29 255
0.102101 0.027218 0.012920 47 27 26 255
0.102675 0.028990 0.012311 47 33 33 255
0.104424 0.029819 0.011382 52 40 40 255
0.090016 -0.011666 0.025093 141 113 91 255
0.090020 -0.016417 0.025650 105 82 64 255
-0.054367 0.041493 0.017200 47 50 55 255
0.092558 -0.002413 0.023131 155 124 106 255
0.128340 0.025697 -0.000604 200 163 144 255
0.128340 0.026186 -0.000655 198 163 143 255
0.128340 0.026678 -0.000716 183 150 133 255
-0.003029 -0.087369 0.002992 41 32 33 255
-0.003733 -0.084658 0.004162 41 31 30 255
0.131437 0.022547 -0.001886 206 154 130 255
0.093230 0.000944 0.022339 170 142 121 255
0.131437 0.023039 -0.001947 209 161 141 255
0.131437 0.023536 -0.001998 200 155 134 255
0.135034 0.019836 -0.003263 152 62 38 255
0.133861 0.021391 -0.002997 215 138 112 255
0.136032 0.017837 -0.003105 172 61 41 255
0.135532 0.018837 -0.003184 164 57 37 255
0.094701 0.002136 0.021741 111 83 62 255
0.136705 0.018274 -0.003562 172 62 39 255
0.105494 0.030695 0.010848 47 35 35 255
0.103747 0.030313 0.011727 51 39 39 255
0.123319 0.029873 0.001789 58 42 42 255
0.094301 0.002574 0.021718 146 115 95 255
0.101428 0.026360 0.013426 51 27 25 255
0.100181 0.024204 0.014481 56 29 22 255
0.101428 0.026813 0.013376 47 26 23 255
0.094874 0.005527 0.020972 151 120 99 255
0.095146 0.010254 0.020046 190 157 138 255
0.093800 0.004758 0.021493 178 148 124 255
0.094873 0.005967 0.020922 156 125 105 255
0.091086 -0.004885 0.023877 173 141 120 255
0.090015 -0.008639 0.024745 162 130 107 255
0.090016 -0.010367 0.024944 155 124 103 255
0.124667 0.028834 0.001089 80 66 63 255
0.099508 0.023360 0.014987 63 34 28 255
0.102101 0.027671 0.012870 47 27 28 255
0.102101 0.028125 0.012810 45 25 26 255
0.125166 0.029797 0.000944 105 96 97 255
0.102675 0.029443 0.012260 48 34 34 255
0.102100 0.028578 0.012760 49 33 33 255
0.100355 0.027761 0.013698 48 28 29 255
0.099681 0.026906 0.014204 54 33 30 255
0.095946 0.006740 0.020401 107 75 62 255
0.095946 0.007179 0.020351 105 73 58 255
0.099062 0.018557 0.016297 75 46 30 255
0.099060 0.019004 0.016237 75 46 30 255
0.090021 -0.016849 0.025700 100 77 59 255
0.104820 0.031186 0.011194 50 38 40 255
0.105894 0.031609 0.010711 47 35 39 255
0.135709 0.020280 -0.003719 156 70 47 255
0.094029 -0.000364 0.022434 107 78 64 255
0.092557 -0.001981 0.023081 154 126 105 255
0.094027 0.000071 0.022384 106 77 63 255
0.099960 0.016766 0.016436 76 48 36 255
0.099909 0.022012 0.015120 58 35 27 255
0.127666 0.027209 -0.000361 174 144 133 255
0.127666 0.027698 -0.000422 174 144 134 255
0.099333 0.021175 0.015609 68 45 31 255
0.102000 0.030392 0.012556 45 31 31 255
0.102100 0.029937 0.012609 48 33 36 255
0.100355 0.028214 0.013648 47 27 28 255
0.100354 0.028663 0.013588 45 29 29 255
0.091085 -0.004450 0.023827 171 138 119 255
0.090017 -0.010802 0.024994 151 120 99 255
0.091086 -0.004018 0.023778 176 144 123 255
0.090017 -0.011234 0.025044 146 115 94 255
0.090014 -0.007344 0.024596 167 132 110 255
0.091085 -0.003586 0.023728 177 147 123 255
0.093629 0.000510 0.022361 140 109 89 255
0.093229 0.002250 0.022189 170 139 118 255
0.092729 0.003996 0.022024 193 158 138 255
0.100353 0.029113 0.013538 45 31 31 255
0.092156 0.000628 0.022809 181 150 122 255
0.093800 0.005197 0.021443 182 151 130 255
0.092728 0.004432 0.021964 192 157 135 255
0.092156 0.001064 0.022760 179 148 120 255
0.090417 -0.011233 0.025016 120 93 74 255
0.091085 -0.003150 0.023678 174 144 120 255
0.090417 -0.010801 0.024967 126 99 80 255
0.092556 -0.001110 0.022981 164 133 113 255
0.090014 -0.006912 0.024546 169 134 112 255
0.099681 0.027356 0.014154 50 30 29 255
0.102499 0.031295 0.012421 52 40 42 255
0.091085 -0.002718 0.023629 176 146 122 255
0.069870 0.000397 0.031202 209 168 138 255
0.072484 0.011269 0.028687 218 182 150 255
0.030977 -0.048985 0.046780 137 92 73 255
0.028609 -0.052600 0.047723 173 116 96 255
0.060070 -0.010874 0.035697 209 164 133 255
0.054757 -0.014809 0.037598 216 168 145 255
0.025959 -0.045444 0.047793 80 43 35 255
0.024286 -0.046334 0.048367 94 51 45 255
0.024287 -0.045948 0.048328 92 48 47 255
0.025559 -0.044671 0.047732 76 39 33 255
0.023887 -0.043629 0.048083 68 35 26 255
0.025260 -0.044279 0.047704 75 38 30 255
0.024686 -0.045566 0.048253 84 43 39 255
0.023414 -0.045299 0.048674 89 45 42 255
0.029092 -0.031079 0.046638 173 127 101 255
0.032906 -0.027094 0.044837 191 141 108 255
0.035604 -0.030604 0.045064 182 133 103 255
0.032263 -0.034791 0.046496 113 76 60 255
0.027805 -0.044027 0.046784 60 27 22 255
0.027805 -0.043636 0.046735 60 30 22 255
0.026532 -0.044154 0.047244 63 30 23 255
0.026833 -0.044545 0.047272 69 34 28 255
0.026835 -0.049595 0.047846 150 99 82 255
0.025662 -0.047769 0.048085 122 76 61 255
0.030575 -0.044684 0.046310 76 43 34 255
0.027805 -0.043246 0.046696 58 28 20 255
0.036319 -0.052299 0.046081 157 107 82 255
0.031376 -0.049377 0.046791 144 97 79 255
0.031774 -0.047034 0.046492 107 71 55 255
0.035342 -0.047707 0.045974 110 69 49 255
0.024745 -0.019874 0.044919 217 161 138 255
0.029114 -0.023191 0.044646 209 155 129 255
0.025598 -0.027210 0.046428 222 170 148 255
0.022201 -0.022956 0.046162 231 173 153 255
0.018381 -0.018149 0.046955 224 167 147 255
0.020701 -0.015245 0.045380 212 160 138 255
0.014657 -0.012280 0.047608 213 162 143 255
0.015284 -0.014756 0.048223 224 169 149 255
0.013836 -0.015897 0.049168 219 163 146 255
0.014409 -0.014200 0.048570 230 175 155 255
0.013614 -0.018710 0.049146 184 117 98 255
0.015683 -0.016266 0.048360 222 166 151 255
0.010470 -0.019438 0.050167 144 76 57 255
-0.010820 -0.017806 0.058280 160 95 75 255
-0.009423 -0.016403 0.058024 171 106 88 255
-0.011373 -0.015655 0.058791 181 114 97 255
-0.012593 -0.017599 0.058737 159 94 74 255
0.009419 -0.018308 0.050825 164 96 77 255
0.013314 -0.019086 0.049215 176 108 89 255
-0.007852 -0.016604 0.057581 167 102 84 255
-0.008802 -0.014803 0.058167 183 120 102 255
-0.007154 -0.015546 0.057410 177 112 94 255
-0.006603 -0.017711 0.056900 158 93 73 255
0.014663 -0.020225 0.048527 182 115 96 255
0.010546 -0.020382 0.049912 127 62 44 255
0.008945 -0.017743 0.051165 173 106 87 255
0.010517 -0.017198 0.050625 191 133 111 255
-0.009677 -0.014261 0.058515 193 131 110 255
-0.011149 -0.014414 0.058999 188 126 105 255
-0.012621 -0.014566 0.059473 189 124 104 255
-0.009976 -0.014608 0.058583 187 125 104 255
-0.004510 -0.013803 0.056310 196 138 118 255
-0.006082 -0.015387 0.056963 182 117 99 255
-0.005283 -0.013615 0.056699 196 138 118 255
-0.010375 -0.013906 0.058524 199 138 117 255
-0.008029 -0.014292 0.057692 191 130 109 255
-0.008032 -0.009002 0.057073 226 177 162 255
-0.009503 -0.009176 0.057558 228 176 162 255
0.011313 -0.016087 0.050446 217 159 139 255
0.000834 -0.016746 0.054118 182 115 98 255
0.002230 -0.015667 0.053900 201 140 121 255
0.006312 0.011408 0.044718 218 166 144 255
0.009634 0.008794 0.043709 215 163 139 255
0.006141 0.008848 0.045388 219 167 145 255
0.009860 0.005834 0.044401 218 166 144 255
0.009566 -0.015712 0.051238 211 153 133 255
0.010739 -0.015161 0.050735 221 164 145 255
0.006070 -0.013869 0.052707 222 169 151 255
0.006944 -0.013684 0.052263 224 171 155 255
0.001964 0.027314 0.042452 183 137 104 255
-0.000234 -0.022071 0.053728 115 66 49 255
0.000642 -0.023013 0.053419 106 60 45 255
-0.001959 -0.019635 0.054643 124 67 50 255
0.041694 0.104694 0.019977 22 16 18 255
0.042490 0.105520 0.019825 22 16 18 255
0.033704 0.151578 0.016897 75 69 73 255
0.032330 0.150886 0.017436 75 69 73 255
0.004668 -0.038476 0.053842 112 59 51 255
0.004193 -0.036744 0.054036 134 89 83 255
0.013803 -0.038894 0.051107 110 70 62 255
0.008686 -0.038876 0.052536 116 64 53 255
0.007842 -0.043134 0.052367 111 55 54 255
0.012184 -0.042921 0.051327 112 56 55 255
0.017299 -0.042575 0.049850 106 51 48 255
0.019194 -0.040293 0.049460 121 78 71 255
0.014423 -0.035642 0.051053 100 68 57 255
0.008983 -0.034388 0.051995 74 55 48 255
0.012010 -0.044924 0.051925 99 49 48 255
0.006746 -0.045386 0.052703 95 36 38 255
0.005694 -0.042224 0.053124 111 58 54 255
0.011136 -0.045031 0.052357 109 55 55 255
0.017736 -0.025368 0.048554 224 172 150 255
0.013095 -0.025311 0.049589 174 126 106 255
0.008978 -0.025413 0.050963 122 80 66 255
0.004959 -0.025136 0.052282 88 60 48 255
